ply
format ascii 1.0
element vertex 421
property float x
property float y
property float z
property float nx
property float ny
property float nz
property uchar red
property uchar green
property uchar blue
end_header
1.2772767829350933 -1.1550740617670825 0.8807329833507539 0.9834399819374084 0.18123599886894226 -4.0242475767047705e-17 100.0 50.0 250.0
0.3266624646834836 -1.4945443476893714 0.8664720058441164 0.0 -2.220446049250313e-16 -1.0 100.0 50.0 250.0
-0.13149824863152648 -1.0893043632962516 0.8937619924545288 0.0 2.220446049250313e-16 1.0 100.0 50.0 250.0
0.007955758517216194 -1.6279693748214057 0.8664720058441164 0.0 -2.220446049250313e-16 -1.0 100.0 50.0 250.0
1.0003377484731182 -1.6528873647906592 0.893761992454529 0.0 2.220446049250313e-16 1.0 100.0 50.0 250.0
0.5459857645086751 -1.0984393637039473 0.8937619924545289 0.0 2.220446049250313e-16 1.0 100.0 50.0 250.0
0.791749774163197 -0.941787352726679 0.8664720058441162 0.0 -2.220446049250313e-16 -1.0 100.0 50.0 250.0
0.7173607634953961 -0.8535613621928503 0.3939848951995373 -0.939782977104187 -0.3417719900608063 7.588862650749346e-17 100.0 50.0 250.0
1.1049657749585613 -1.577879359886866 0.8664720058441164 0.0 -2.220446049250313e-16 -1.0 100.0 50.0 250.0
0.5370377662233815 -0.8890903498389532 0.8937619924545288 0.0 2.220446049250313e-16 1.0 100.0 50.0 250.0
0.5266507628015981 -1.7076093460776618 0.8664720058441164 0.0 -2.220446049250313e-16 -1.0 100.0 50.0 250.0
0.497879064326714 -1.1545703615405372 0.8664720058441163 0.0 -2.220446049250313e-16 -1.0 100.0 50.0 250.0
0.08859875673575257 -1.73595534817956 0.8664720058441164 0.0 -2.220446049250313e-16 -1.0 100.0 50.0 250.0
-0.35491821294503356 -1.0668903644540122 0.8664720058441162 0.0 -2.220446049250313e-16 -1.0 100.0 50.0 250.0
0.1742937552384839 -1.4356123562314322 0.893761992454529 0.0 2.220446049250313e-16 1.0 100.0 50.0 250.0
0.19971476370615815 -1.569927355215769 0.893761992454529 0.0 2.220446049250313e-16 1.0 100.0 50.0 250.0
0.5474287631563649 -0.7671383525588323 0.8937619924545288 0.0 2.220446049250313e-16 1.0 100.0 50.0 250.0
-0.12827322011666442 -1.2211947505705765 0.5639359951019288 -0.5540459752082825 0.8324859738349915 -1.264101784328395e-10 100.0 50.0 250.0
0.30035976940913056 -1.6587813700892737 0.893761992454529 0.0 2.220446049250313e-16 1.0 100.0 50.0 250.0
0.46645436311287736 -1.3434243555524161 0.8664720058441164 0.0 -2.220446049250313e-16 -1.0 100.0 50.0 250.0
0.9746257352284894 -1.5283683742739966 0.8422209918498995 -0.1522980034351349 -0.9883350133895874 -3.5476280755283665e-11 100.0 50.0 250.0
0.45341886269075726 -1.336099361942034 0.8937619924545289 0.0 2.220446049250313e-16 1.0 100.0 50.0 250.0
0.24409676963610505 -0.9341743494727422 0.8937619924545288 0.0 2.220446049250313e-16 1.0 100.0 50.0 250.0
-0.3645682645388141 -0.9972863550641348 0.8664720058441162 0.0 -2.220446049250313e-16 -1.0 100.0 50.0 250.0
0.8804917621068463 -1.6963083650328925 0.893761992454529 0.0 2.220446049250313e-16 1.0 100.0 50.0 250.0
0.7895497667245374 -1.3400563652970603 0.893761992454529 0.0 2.220446049250313e-16 1.0 100.0 50.0 250.0
0.7217607485703931 -1.7838073875167182 0.893761992454529 0.0 2.220446049250313e-16 1.0 100.0 50.0 250.0
0.769725768511723 -0.8905443753459265 0.5811839997768402 0.08593440055847168 -0.996300995349884 -7.09883883182153e-12 100.0 50.0 250.0
0.953263788168858 -1.253608262107592 0.8664720058441163 0.0 -2.220446049250313e-16 -1.0 100.0 50.0 250.0
1.0588077592305645 -0.89117236988328 0.8664720058441162 0.0 -2.220446049250313e-16 -1.0 100.0 50.0 250.0
-0.2903022480555072 -1.4380903597333243 0.893761992454529 0.0 2.220446049250313e-16 1.0 100.0 50.0 250.0
0.9735947536878095 -1.528209349081736 0.6024179905653002 -0.1522980034351349 -0.9883350133895874 -3.5476280755283665e-11 100.0 50.0 250.0
0.8510787772588239 -1.2997495587327292 0.8937619924545289 0.0 2.220446049250313e-16 1.0 100.0 50.0 250.0
0.7598817634038434 -0.7069583441474249 0.8937619924545288 0.0 2.220446049250313e-16 1.0 100.0 50.0 250.0
0.8141347753457532 -1.427152356074076 0.8664720058441164 0.0 -2.220446049250313e-16 -1.0 100.0 50.0 250.0
0.6984097647122846 -1.3257863576867392 0.8937619924545289 0.0 2.220446049250313e-16 1.0 100.0 50.0 250.0
1.2211017894200786 -1.3705163653352073 0.8664720058441164 0.0 -2.220446049250313e-16 -1.0 100.0 50.0 250.0
0.6248817580394254 -0.9802073593594839 0.8664720058441162 0.0 -2.220446049250313e-16 -1.0 100.0 50.0 250.0
0.792448757832478 -1.5771543587901404 0.8664720058441164 0.0 -2.220446049250313e-16 -1.0 100.0 50.0 250.0
0.7522047745637402 -1.1587264593102744 0.8937619924545289 0.0 2.220446049250313e-16 1.0 100.0 50.0 250.0
0.14150676006598328 -1.2147823796543533 0.8664720058441163 0.0 -2.220446049250313e-16 -1.0 100.0 50.0 250.0
0.757801769917439 -1.3419773633935264 0.893761992454529 0.0 2.220446049250313e-16 1.0 100.0 50.0 250.0
0.689802764599751 -0.7249273564078619 0.8664720058441162 0.0 -2.220446049250313e-16 -1.0 100.0 50.0 250.0
-0.05591824775414611 -1.2470493595459273 0.8100909888744355 0.9472919702529907 0.32037100195884705 -7.113665255938862e-17 100.0 50.0 250.0
-0.11674025779442931 -1.3106821607210448 0.03519999980926525 -0.19618399441242218 -0.9805669784545898 2.7880417614473897e-11 100.0 50.0 250.0
0.6183327572993741 -0.8105673696257879 0.8664720058441162 0.0 -2.220446049250313e-16 -1.0 100.0 50.0 250.0
0.8247367727212415 -1.3590033556678107 0.893761992454529 0.0 2.220446049250313e-16 1.0 100.0 50.0 250.0
0.4301239928804145 -1.2441809605219176 0.8937619924545289 0.0 2.220446049250313e-16 1.0 100.0 50.0 250.0
0.7677847730569348 -1.6504493560054114 0.8664720058441164 0.0 -2.220446049250313e-16 -1.0 100.0 50.0 250.0
0.7577857660703168 -0.8901463653304388 0.6799999922513962 -0.17461499571800232 -0.9846370220184326 -9.025797811656533e-11 100.0 50.0 250.0
0.29816976064963197 -0.612393369839411 0.8937619924545288 0.0 2.220446049250313e-16 1.0 100.0 50.0 250.0
0.9818407582692609 -1.529328366682749 0.5157998949289324 0.10841000080108643 -0.9941059947013855 -5.103777947912509e-11 100.0 50.0 250.0
0.3835220622472272 -1.5562973524787238 0.893761992454529 0.0 2.220446049250313e-16 1.0 100.0 50.0 250.0
-0.12004020934777404 -1.3896643574693015 0.893761992454529 0.0 2.220446049250313e-16 1.0 100.0 50.0 250.0
0.26290775710863923 -0.9266673530795385 0.8664720058441162 0.0 -2.220446049250313e-16 -1.0 100.0 50.0 250.0
-0.08387723689751769 -1.2174532405909857 0.43749038595706236 0.44387999176979065 0.8960859775543213 -8.792760044195659e-11 100.0 50.0 250.0
0.42816156292015617 -1.4556733574130347 0.8664720058441164 0.0 -2.220446049250313e-16 -1.0 100.0 50.0 250.0
0.3189497652105794 -1.1855163610883763 0.8664720058441163 0.0 -2.220446049250313e-16 -1.0 100.0 50.0 250.0
0.9451987432889447 -1.5123633648612311 0.5239188969135287 -0.8070629835128784 -0.5904650092124939 1.3110956969264318e-16 100.0 50.0 250.0
0.021137772744129646 -1.1397855635144523 0.8937619924545289 0.0 2.220446049250313e-16 1.0 100.0 50.0 250.0
-0.05521622424798156 -1.2782722617842963 0.16911301016807567 0.9805740118026733 -0.196151003241539 4.355427202041606e-17 100.0 50.0 250.0
-0.024378241354991448 -0.9984423573472311 0.8664720058441162 0.0 -2.220446049250313e-16 -1.0 100.0 50.0 250.0
0.7222147571496472 -1.636805346176844 0.893761992454529 0.0 2.220446049250313e-16 1.0 100.0 50.0 250.0
-0.10303822284417297 -1.672872355149012 0.893761992454529 0.0 2.220446049250313e-16 1.0 100.0 50.0 250.0
-0.1989832234926715 -0.8083463515498449 0.8664720058441162 0.0 -2.220446049250313e-16 -1.0 100.0 50.0 250.0
-0.15716222053246642 -1.549672355816584 0.8664720058441164 0.0 -2.220446049250313e-16 -1.0 100.0 50.0 250.0
0.8084807681493268 -1.0583543534734061 0.8937619924545288 0.0 2.220446049250313e-16 1.0 100.0 50.0 250.0
0.6578047561101422 -1.664991369412165 0.893761992454529 0.0 2.220446049250313e-16 1.0 100.0 50.0 250.0
0.8015927659921155 -0.6855273749091436 0.8664720058441162 0.0 -2.220446049250313e-16 -1.0 100.0 50.0 250.0
0.558390765135716 -1.0393643583514502 0.8937619924545288 0.0 2.220446049250313e-16 1.0 100.0 50.0 250.0
1.076968758051823 -1.5907753612258246 0.8664720058441164 0.0 -2.220446049250313e-16 -1.0 100.0 50.0 250.0
-0.07833323007302428 -1.2201994805940202 0.6579120010137559 0.44387999176979065 0.8960859775543213 -8.792760044195659e-11 100.0 50.0 250.0
-0.0061432433672442555 -0.7154253627517034 0.8937619924545288 0.0 2.220446049250313e-16 1.0 100.0 50.0 250.0
0.6610857682876096 -0.8896943535067846 0.8664720058441162 0.0 -2.220446049250313e-16 -1.0 100.0 50.0 250.0
0.29323075587076997 -0.8378523494460394 0.8664720058441162 0.0 -2.220446049250313e-16 -1.0 100.0 50.0 250.0
0.647319762652348 -1.5303113664843848 0.8664720058441164 0.0 -2.220446049250313e-16 -1.0 100.0 50.0 250.0
0.837057768052052 -1.659272363350611 0.893761992454529 0.0 2.220446049250313e-16 1.0 100.0 50.0 250.0
0.9197597491197095 -1.02831836597703 0.8937619924545288 0.0 2.220446049250313e-16 1.0 100.0 50.0 250.0
0.13354074830336427 -0.9405883754946996 0.8664720058441162 0.0 -2.220446049250313e-16 -1.0 100.0 50.0 250.0
0.9622337507657514 -1.28234705881856 0.8937619924545289 0.0 2.220446049250313e-16 1.0 100.0 50.0 250.0
0.9328417467526898 -1.4773433710791877 0.09993898868560808 -0.9883350133895874 0.15229499340057373 -3.3816281641690644e-17 100.0 50.0 250.0
0.004875748103092659 -1.4406073595740607 0.893761992454529 0.0 2.220446049250313e-16 1.0 100.0 50.0 250.0
0.5239438625626073 -0.9207783545710851 0.8664720058441162 0.0 -2.220446049250313e-16 -1.0 100.0 50.0 250.0
0.20022176081461762 -1.418255364463549 0.893761992454529 0.0 2.220446049250313e-16 1.0 100.0 50.0 250.0
0.9806617783956036 -1.6805623676039985 0.8878429830074313 0.4806390106678009 -0.8769180178642273 -4.9772001436539255e-08 100.0 50.0 250.0
-0.4283402276583209 -1.1760595607914737 0.8782790005207063 -0.983439028263092 0.18123699724674225 -4.024269745145187e-17 100.0 50.0 250.0
-0.16539022451119567 -0.9041663612582495 0.8664720058441162 0.0 -2.220446049250313e-16 -1.0 100.0 50.0 250.0
0.8243327724389539 -0.7515753711917211 0.8937619924545288 0.0 2.220446049250313e-16 1.0 100.0 50.0 250.0
0.09539577240271424 -0.7606223727919866 0.8937619924545288 0.0 2.220446049250313e-16 1.0 100.0 50.0 250.0
0.9707427906445966 -1.5277703608729651 0.025637000799179244 -0.1522980034351349 -0.9883350133895874 -3.5476280755283665e-11 100.0 50.0 250.0
0.36493016282243584 -1.533601364062052 0.8664720058441164 0.0 -2.220446049250313e-16 -1.0 100.0 50.0 250.0
-0.10537025457101012 -1.1773993614473155 0.8664720058441163 0.0 -2.220446049250313e-16 -1.0 100.0 50.0 250.0
0.9614177631787763 -1.43491535441659 0.04037198424339311 -0.36150699853897095 0.9323700070381165 -7.879526620348418e-12 100.0 50.0 250.0
-0.12374022727685119 -1.6187883521773627 0.893761992454529 0.0 2.220446049250313e-16 1.0 100.0 50.0 250.0
-0.1974052501268878 -0.8102223481395056 0.8664720058441162 0.0 -2.220446049250313e-16 -1.0 100.0 50.0 250.0
0.8803937720708356 -0.7031993772246649 0.8664720058441162 0.0 -2.220446049250313e-16 -1.0 100.0 50.0 250.0
0.4189086129531071 -0.6000203396537115 0.8846159875392914 -0.09364499896764755 0.995606005191803 -2.2211500415726616e-08 100.0 50.0 250.0
1.1887297915868267 -1.0928593631245902 0.8937619924545289 0.0 2.220446049250313e-16 1.0 100.0 50.0 250.0
0.353713064139317 -1.17862685950182 0.8664720058441163 0.0 -2.220446049250313e-16 -1.0 100.0 50.0 250.0
-0.23739525800423766 -1.1152704636909774 0.8664720058441163 0.0 -2.220446049250313e-16 -1.0 100.0 50.0 250.0
0.6506877678088651 -0.8405083622195532 0.8664720058441162 0.0 -2.220446049250313e-16 -1.0 100.0 50.0 250.0
0.9256457673959241 -1.5446703638293555 0.8664720058441164 0.0 -2.220446049250313e-16 -1.0 100.0 50.0 250.0
0.7294457542352185 -1.7127163614489844 0.8664720058441164 0.0 -2.220446049250313e-16 -1.0 100.0 50.0 250.0
1.1960677790097698 -1.323905361757498 0.8937619924545289 0.0 2.220446049250313e-16 1.0 100.0 50.0 250.0
1.2659007596425518 -1.2282245605596116 0.8937619924545289 0.0 2.220446049250313e-16 1.0 100.0 50.0 250.0
0.5638597595147595 -0.9628173615195562 0.8664720058441162 0.0 -2.220446049250313e-16 -1.0 100.0 50.0 250.0
0.19569076473040437 -1.1693401615478805 0.8937619924545289 0.0 2.220446049250313e-16 1.0 100.0 50.0 250.0
0.1756437706403241 -1.5975833739497474 0.8664720058441164 0.0 -2.220446049250313e-16 -1.0 100.0 50.0 250.0
0.33235696578545426 -0.9946463610389044 0.8937619924545288 0.0 2.220446049250313e-16 1.0 100.0 50.0 250.0
-0.14352426057534362 -1.2905792574741652 0.19028398394584667 -0.8319950103759766 -0.5547839999198914 1.2318679408094088e-16 100.0 50.0 250.0
-0.11425224071221496 -1.6317093576648047 0.8664720058441164 0.0 -2.220446049250313e-16 -1.0 100.0 50.0 250.0
-0.20786121612267638 -1.3588333632209113 0.893761992454529 0.0 2.220446049250313e-16 1.0 100.0 50.0 250.0
0.48510326320452546 -1.2454102597542813 0.8937619924545289 0.0 2.220446049250313e-16 1.0 100.0 50.0 250.0
0.6589257555655942 -0.7625203634955694 0.8664720058441162 0.0 -2.220446049250313e-16 -1.0 100.0 50.0 250.0
0.020162759964893806 -1.0944953616120627 0.8937619924545289 0.0 2.220446049250313e-16 1.0 100.0 50.0 250.0
0.8802367734364972 -1.0769703592517188 0.8664720058441162 0.0 -2.220446049250313e-16 -1.0 100.0 50.0 250.0
0.0028727638177380443 -1.1088643576361945 0.8937619924545289 0.0 2.220446049250313e-16 1.0 100.0 50.0 250.0
0.4209802231393561 -1.2124747905757984 0.8937619924545289 0.0 2.220446049250313e-16 1.0 100.0 50.0 250.0
0.6731147604636655 -1.0575263555505088 0.8664720058441162 0.0 -2.220446049250313e-16 -1.0 100.0 50.0 250.0
0.804581760113667 -0.8114193584182073 0.03289598226547241 0.8196399807929993 0.5728790163993835 -1.2720469486624165e-16 100.0 50.0 250.0
0.32767566168827866 -0.960878362820368 0.8937619924545288 0.0 2.220446049250313e-16 1.0 100.0 50.0 250.0
0.9115687596253857 -0.8208693470217993 0.8937619924545288 0.0 2.220446049250313e-16 1.0 100.0 50.0 250.0
0.47096396112961625 -1.1589058618404677 0.8664720058441163 0.0 -2.220446049250313e-16 -1.0 100.0 50.0 250.0
-0.0729652357645526 -0.8877823557116796 0.8937619924545288 0.0 2.220446049250313e-16 1.0 100.0 50.0 250.0
0.9379587459020123 -1.4581893588759711 0.8557260036468508 -0.9150410294532776 0.4033609926700592 -8.956413225959175e-17 100.0 50.0 250.0
0.9344157862119183 -0.811836352513056 0.8664720058441162 0.0 -2.220446049250313e-16 -1.0 100.0 50.0 250.0
0.6024387615375028 -1.6042533721186927 0.893761992454529 0.0 2.220446049250313e-16 1.0 100.0 50.0 250.0
0.793650774901341 -0.881836375162821 0.015152007341384943 0.572842001914978 -0.8196660280227661 1.4417618647089637e-10 100.0 50.0 250.0
-0.05493325119691039 -1.2768546621658614 0.2818479984998704 0.9805740118026733 -0.196151003241539 4.355427202041606e-17 100.0 50.0 250.0
0.9358287739209638 -1.4630213584163 0.1740939915180208 -0.9150410294532776 0.4033609926700592 -8.956413225959175e-17 100.0 50.0 250.0
0.9102287578038678 -1.526716371939402 0.893761992454529 0.0 2.220446049250313e-16 1.0 100.0 50.0 250.0
1.0226627873830303 -1.2942769582726767 0.8937619924545289 0.0 2.220446049250313e-16 1.0 100.0 50.0 250.0
0.11433577412886475 -1.4392293597914985 0.8664720058441164 0.0 -2.220446049250313e-16 -1.0 100.0 50.0 250.0
0.14304175848288392 -0.9212303663947393 0.8937619924545288 0.0 2.220446049250313e-16 1.0 100.0 50.0 250.0
0.9639637755803571 -0.9993483628489782 0.8664720058441162 0.0 -2.220446049250313e-16 -1.0 100.0 50.0 250.0
1.0558097648076519 -0.7982073630549719 0.8895010054111481 0.6813420057296753 0.7319650053977966 -5.0022500082561595e-08 100.0 50.0 250.0
0.45050956370456074 -1.4431323613383582 0.893761992454529 0.0 2.220446049250313e-16 1.0 100.0 50.0 250.0
0.8140617596559033 -1.628607353136759 0.893761992454529 0.0 2.220446049250313e-16 1.0 100.0 50.0 250.0
1.0087807464055523 -1.0844953562476447 0.8937619924545288 0.0 2.220446049250313e-16 1.0 100.0 50.0 250.0
0.7446327495030866 -1.7636423613288215 0.893761992454529 0.0 2.220446049250313e-16 1.0 100.0 50.0 250.0
1.151860742514561 -1.3502473588444999 0.8664720058441164 0.0 -2.220446049250313e-16 -1.0 100.0 50.0 250.0
0.47651546323819016 -1.7208763863303473 0.893761992454529 0.0 2.220446049250313e-16 1.0 100.0 50.0 250.0
0.10604575151724671 -0.7612853552558233 0.8937619924545288 0.0 2.220446049250313e-16 1.0 100.0 50.0 250.0
-0.029654235894252312 -0.9135763551451971 0.8937619924545288 0.0 2.220446049250313e-16 1.0 100.0 50.0 250.0
-0.15957424169259216 -0.9455983545043279 0.8664720058441162 0.0 -2.220446049250313e-16 -1.0 100.0 50.0 250.0
1.0156887459210857 -1.4432043637492469 0.7835629880428316 0.6257749795913696 0.7800040245056152 2.148208211307735e-10 100.0 50.0 250.0
0.4020343633942113 -1.6099053527571967 0.8664720058441164 0.0 -2.220446049250313e-16 -1.0 100.0 50.0 250.0
1.1211647676877483 -1.3735533560969642 0.893761992454529 0.0 2.220446049250313e-16 1.0 100.0 50.0 250.0
0.8816147732190595 -1.0430983658292106 0.8937619924545288 0.0 2.220446049250313e-16 1.0 100.0 50.0 250.0
0.9018177675656781 -1.4401043559768012 0.893761992454529 0.0 2.220446049250313e-16 1.0 100.0 50.0 250.0
-0.13141921287255431 -1.5655713583686164 0.893761992454529 0.0 2.220446049250313e-16 1.0 100.0 50.0 250.0
-0.040590227896739495 -1.3353323619224837 0.8664720058441163 0.0 -2.220446049250313e-16 -1.0 100.0 50.0 250.0
-0.17011121040063049 -1.012125363514643 0.8937619924545288 0.0 2.220446049250313e-16 1.0 100.0 50.0 250.0
0.943745760863255 -1.4490303601481727 0.030579000711441207 -0.779587984085083 0.6262930035591125 -1.3906498254259437e-16 100.0 50.0 250.0
1.0688137697629436 -0.9740103538491537 0.8937619924545288 0.0 2.220446049250313e-16 1.0 100.0 50.0 250.0
0.7147507655076489 -0.813265373871546 0.8664720058441162 0.0 -2.220446049250313e-16 -1.0 100.0 50.0 250.0
0.779948769753407 -0.938841363356333 0.8937619924545288 0.0 2.220446049250313e-16 1.0 100.0 50.0 250.0
0.7127237605504498 -0.9584463741042425 0.8664720058441162 0.0 -2.220446049250313e-16 -1.0 100.0 50.0 250.0
0.9751867341451154 -1.430864354536753 0.3113719969987871 -0.10839000344276428 0.9941080212593079 1.9931379037103345e-11 100.0 50.0 250.0
-0.029281230027247918 -0.7019903566100408 0.8937619924545288 0.0 2.220446049250313e-16 1.0 100.0 50.0 250.0
0.7577257739953503 -1.0560483540751746 0.8664720058441162 0.0 -2.220446049250313e-16 -1.0 100.0 50.0 250.0
-0.11273124938683654 -1.3622283543803504 0.8664720058441164 0.0 -2.220446049250313e-16 -1.0 100.0 50.0 250.0
-0.24016323810296203 -1.0325653608300498 0.8937619924545288 0.0 2.220446049250313e-16 1.0 100.0 50.0 250.0
0.18435175592226838 -1.529448350832682 0.893761992454529 0.0 2.220446049250313e-16 1.0 100.0 50.0 250.0
0.25747676069063996 -1.8147403504111579 0.8914360105991366 -0.09358370304107666 -0.9956110119819641 -1.3735799831857462e-08 100.0 50.0 250.0
0.20274476582331513 -1.383972367212992 0.893761992454529 0.0 2.220446049250313e-16 1.0 100.0 50.0 250.0
-0.3311042500086322 -1.4210013653495124 0.8664720058441164 0.0 -2.220446049250313e-16 -1.0 100.0 50.0 250.0
0.26435775930209016 -1.6443933750846198 0.893761992454529 0.0 2.220446049250313e-16 1.0 100.0 50.0 250.0
0.6557007568530545 -1.8078113700606635 0.8733289837837221 0.283719003200531 -0.9589070081710815 8.777600179119705e-08 100.0 50.0 250.0
0.9846927809171185 -1.2136220406385845 0.8664720058441163 0.0 -2.220446049250313e-16 -1.0 100.0 50.0 250.0
1.2195887851171001 -1.1922322604217341 0.8937619924545289 0.0 2.220446049250313e-16 1.0 100.0 50.0 250.0
0.8138427721909985 -1.2289570606657079 0.8664720058441163 0.0 -2.220446049250313e-16 -1.0 100.0 50.0 250.0
-0.1498472405024066 -1.277115559146624 0.01780998706817638 -0.9472929835319519 -0.32036900520324707 7.11362091905803e-17 100.0 50.0 250.0
-0.07256522899346496 -0.959186365769129 0.8937619924545288 0.0 2.220446049250313e-16 1.0 100.0 50.0 250.0
0.1938317554645047 -1.389050355122309 0.8664720058441164 0.0 -2.220446049250313e-16 -1.0 100.0 50.0 250.0
0.8711457538060651 -0.8691643680789282 0.8937619924545288 0.0 2.220446049250313e-16 1.0 100.0 50.0 250.0
0.9990227508000836 -1.4331383611419013 0.01502999663352983 0.40375399589538574 0.9148679971694946 -1.396162024587249e-10 100.0 50.0 250.0
0.6564317631177411 -0.8381263519980718 0.8664720058441162 0.0 -2.220446049250313e-16 -1.0 100.0 50.0 250.0
-0.15069320922570373 -1.252914359734278 0.8500010073184968 -0.9805390238761902 0.19632400572299957 -4.3592686288063026e-17 100.0 50.0 250.0
0.25224275762362336 -1.525380363629084 0.893761992454529 0.0 2.220446049250313e-16 1.0 100.0 50.0 250.0
0.20082576448244904 -0.6987733747222235 0.8937619924545288 0.0 2.220446049250313e-16 1.0 100.0 50.0 250.0
0.8299317645482526 -0.7205653692939092 0.8664720058441162 0.0 -2.220446049250313e-16 -1.0 100.0 50.0 250.0
0.09536474818510865 -1.058558365271311 0.8937619924545288 0.0 2.220446049250313e-16 1.0 100.0 50.0 250.0
-0.3709722471781268 -1.4349653627135566 0.8721829950809481 -0.8650439977645874 -0.501695990562439 1.11398888016909e-16 100.0 50.0 250.0
0.8786297726087079 -0.693462362454157 0.8682689964771271 0.4806399941444397 0.8769180178642273 4.2880500733107226e-08 100.0 50.0 250.0
0.12050476545615052 -0.6448013688781072 0.8755660057067871 -0.283719003200531 0.9589070081710815 -1.201050250122961e-09 100.0 50.0 250.0
0.7517707633428082 -0.7939273621299078 0.049777984619140625 -0.3419269919395447 0.9397259950637817 -1.3782421087204956e-10 100.0 50.0 250.0
0.16298976415915345 -1.410954361722689 0.893761992454529 0.0 2.220446049250313e-16 1.0 100.0 50.0 250.0
-0.08094421153741027 -1.294719358847361 1.1102230246251565e-16 0.0 -2.220446049250313e-16 -1.0 100.0 50.0 250.0
0.6003917592219815 -1.7614493872382453 0.893761992454529 0.0 2.220446049250313e-16 1.0 100.0 50.0 250.0
0.03052577251715516 -1.1292163635947516 0.8664720058441163 0.0 -2.220446049250313e-16 -1.0 100.0 50.0 250.0
0.6549027698688016 -1.5104113723494819 0.893761992454529 0.0 2.220446049250313e-16 1.0 100.0 50.0 250.0
0.7713947581700787 -0.7924203480937292 0.7946859896183014 0.17461499571800232 0.9846370220184326 -9.025841538324242e-11 100.0 50.0 250.0
1.2445737409047588 -1.1294212620117476 0.8664720058441163 0.0 -2.220446049250313e-16 -1.0 100.0 50.0 250.0
0.780384777729939 -1.7468103672721198 0.893761992454529 0.0 2.220446049250313e-16 1.0 100.0 50.0 250.0
0.01010677093787049 -1.2217722804629019 0.8937619924545289 0.0 2.220446049250313e-16 1.0 100.0 50.0 250.0
0.4253059128872857 -0.8659893478610327 0.8937619924545288 0.0 2.220446049250313e-16 1.0 100.0 50.0 250.0
-0.09049025302605773 -1.6526083554484656 0.8664720058441164 0.0 -2.220446049250313e-16 -1.0 100.0 50.0 250.0
0.5917417692594037 -1.3528763558127692 0.893761992454529 0.0 2.220446049250313e-16 1.0 100.0 50.0 250.0
0.32317576432747697 -0.8057343568064977 0.8937619924545288 0.0 2.220446049250313e-16 1.0 100.0 50.0 250.0
0.2209197568349347 -1.8113043810584357 0.8774780035018923 -0.09358370304107666 -0.9956110119819641 -1.3735799831857462e-08 100.0 50.0 250.0
0.809843777363728 -0.819355359242182 0.1170710027217865 0.9400460124015808 0.3410469889640808 -7.572764392540084e-17 100.0 50.0 250.0
0.9351007627896771 -1.172938259259682 0.8664720058441163 0.0 -2.220446049250313e-16 -1.0 100.0 50.0 250.0
0.2906657593898282 -0.7851843740203192 0.8937619924545288 0.0 2.220446049250313e-16 1.0 100.0 50.0 250.0
0.330378762131165 -0.9819943662144949 0.8937619924545288 0.0 2.220446049250313e-16 1.0 100.0 50.0 250.0
1.0099777864865764 -1.438622360990267 0.09794998168945329 0.6257749795913696 0.7800040245056152 2.148208211307735e-10 100.0 50.0 250.0
1.031859784071873 -1.4787273611285499 0.47297269664704816 0.9941279888153076 0.10821399837732315 -2.4028334517050698e-17 100.0 50.0 250.0
-0.08420524125771667 -1.3091172631242087 0.5053382962942125 0.3195750117301941 -0.9475610256195068 1.0082820912882831e-10 100.0 50.0 250.0
0.4266723239029099 -1.5968943740584662 0.893761992454529 0.0 2.220446049250313e-16 1.0 100.0 50.0 250.0
0.7250797736100659 -1.7872833515860846 0.8838529884815218 0.283719003200531 -0.9589070081710815 8.777600179119705e-08 100.0 50.0 250.0
0.9980397509984479 -0.9354353751399328 0.8937619924545288 0.0 2.220446049250313e-16 1.0 100.0 50.0 250.0
0.6317197668008313 -1.2412579599180034 0.8937619924545289 0.0 2.220446049250313e-16 1.0 100.0 50.0 250.0
0.33718096340222214 -1.1507226582028678 0.8937619924545289 0.0 2.220446049250313e-16 1.0 100.0 50.0 250.0
-0.06482324128823425 -1.230877561435919 0.16729998588562023 0.831725001335144 0.5551890134811401 -1.2327672515713764e-16 100.0 50.0 250.0
-0.03165823345856811 -0.8522563482978155 0.8664720058441162 0.0 -2.220446049250313e-16 -1.0 100.0 50.0 250.0
-0.29863724237160827 -1.1670651602902224 0.8937619924545289 0.0 2.220446049250313e-16 1.0 100.0 50.0 250.0
0.49571996057553147 -1.4496793653228095 0.893761992454529 0.0 2.220446049250313e-16 1.0 100.0 50.0 250.0
1.0659997748784527 -1.2308984603144935 0.8664720058441163 0.0 -2.220446049250313e-16 -1.0 100.0 50.0 250.0
0.973631768172215 -1.4310343618848136 0.39047679677605646 -0.10839000344276428 0.9941080212593079 1.9931379037103345e-11 100.0 50.0 250.0
0.8467967497758374 -1.5740253533580115 0.893761992454529 0.0 2.220446049250313e-16 1.0 100.0 50.0 250.0
0.6035107659749493 -0.7400783504702856 0.8937619924545288 0.0 2.220446049250313e-16 1.0 100.0 50.0 250.0
0.16226976985258912 -1.4135383571841529 0.8664720058441164 0.0 -2.220446049250313e-16 -1.0 100.0 50.0 250.0
0.7656077730111585 -1.6849073673941901 0.8664720058441164 0.0 -2.220446049250313e-16 -1.0 100.0 50.0 250.0
-0.009996236617137444 -1.29329806374095 0.8664720058441163 0.0 -2.220446049250313e-16 -1.0 100.0 50.0 250.0
0.04492574805540894 -1.7507763411261847 0.893761992454529 0.0 2.220446049250313e-16 1.0 100.0 50.0 250.0
-0.1763672543116107 -0.9511943663813879 0.8937619924545288 0.0 2.220446049250313e-16 1.0 100.0 50.0 250.0
1.0798297810010418 -1.4181993658997825 0.8664720058441164 0.0 -2.220446049250313e-16 -1.0 100.0 50.0 250.0
-0.14407321935372497 -1.1563019621529391 0.8664720058441163 0.0 -2.220446049250313e-16 -1.0 100.0 50.0 250.0
-0.4139892173357501 -1.331761358247023 0.882202982902527 -0.9834420084953308 -0.1812240034341812 4.0239812245475285e-17 100.0 50.0 250.0
1.0318567442349895 -1.4787003602244666 0.34566199779510515 0.9941279888153076 0.10821399837732315 -2.4028334517050698e-17 100.0 50.0 250.0
0.12660077089590882 -1.3385363574483207 0.8664720058441163 0.0 -2.220446049250313e-16 -1.0 100.0 50.0 250.0
0.6728617685489163 -1.077226361201029 0.8664720058441162 0.0 -2.220446049250313e-16 -1.0 100.0 50.0 250.0
1.0623127507619365 -0.9898153598763754 0.8937619924545288 0.0 2.220446049250313e-16 1.0 100.0 50.0 250.0
0.23593675965590333 -1.088235353992205 0.8937619924545288 0.0 2.220446049250313e-16 1.0 100.0 50.0 250.0
0.42490929287074064 -1.7262793685653022 0.8664720058441164 0.0 -2.220446049250313e-16 -1.0 100.0 50.0 250.0
0.6216867702655301 -1.232592061103206 0.8937619924545289 0.0 2.220446049250313e-16 1.0 100.0 50.0 250.0
1.007558791583012 -1.5223393644549659 0.31631399691104906 0.5908870100975037 -0.806755006313324 -1.1110881786735442e-10 100.0 50.0 250.0
0.8816147732190595 -1.0430983658292106 0.8937619924545288 0.0 2.220446049250313e-16 1.0 100.0 50.0 250.0
0.8176577674798474 -0.9871093537070562 0.8664720058441162 0.0 -2.220446049250313e-16 -1.0 100.0 50.0 250.0
0.5707417565040097 -0.6614803578116705 0.8664720058441162 0.0 -2.220446049250313e-16 -1.0 100.0 50.0 250.0
0.400732963030766 -1.699049374029856 0.8664720058441164 0.0 -2.220446049250313e-16 -1.0 100.0 50.0 250.0
0.6499947595052228 -1.7072393502452186 0.893761992454529 0.0 2.220446049250313e-16 1.0 100.0 50.0 250.0
1.005111782496403 -1.435825353429537 0.28935900330543535 0.40375399589538574 0.9148679971694946 -1.396162024587249e-10 100.0 50.0 250.0
0.656980766599606 -1.0302583630540183 0.8664720058441162 0.0 -2.220446049250313e-16 -1.0 100.0 50.0 250.0
0.8135127710751996 -0.8525213505484869 0.7296259999275208 0.9846069812774658 -0.17478400468826294 3.8809845268220164e-17 100.0 50.0 250.0
0.03168177480025147 -1.3016977588989547 0.8937619924545289 0.0 2.220446049250313e-16 1.0 100.0 50.0 250.0
0.6766087698392377 -0.7410013581969549 0.8937619924545288 0.0 2.220446049250313e-16 1.0 100.0 50.0 250.0
0.4177096324614987 -1.3644643630244544 0.8664720058441164 0.0 -2.220446049250313e-16 -1.0 100.0 50.0 250.0
0.019431768601368415 -1.3783783669926932 0.8664720058441164 0.0 -2.220446049250313e-16 -1.0 100.0 50.0 250.0
0.20630876595301484 -0.6200173403479864 0.8898870050907135 -0.09364499896764755 0.995606005191803 -2.2211500415726616e-08 100.0 50.0 250.0
0.9117767500333295 -1.1425341572024634 0.8664720058441163 0.0 -2.220446049250313e-16 -1.0 100.0 50.0 250.0
-0.148467214161922 -1.2811969573952964 0.0877479910850526 -0.9472929835319519 -0.32036900520324707 7.11362091905803e-17 100.0 50.0 250.0
0.46825226271672105 -0.7169373537757208 0.8664720058441162 0.0 -2.220446049250313e-16 -1.0 100.0 50.0 250.0
-0.036812247092296135 -0.7302753533580114 0.8664720058441162 0.0 -2.220446049250313e-16 -1.0 100.0 50.0 250.0
1.039084761088322 -1.5468343700625709 0.893761992454529 0.0 2.220446049250313e-16 1.0 100.0 50.0 250.0
0.1255847501210675 -0.8581783677794744 0.8664720058441162 0.0 -2.220446049250313e-16 -1.0 100.0 50.0 250.0
0.6233627634696469 -0.7621953691699316 0.8937619924545288 0.0 2.220446049250313e-16 1.0 100.0 50.0 250.0
1.102503745501469 -1.1451591606595328 0.8937619924545289 0.0 2.220446049250313e-16 1.0 100.0 50.0 250.0
0.6549027698688016 -1.5104113723494819 0.893761992454529 0.0 2.220446049250313e-16 1.0 100.0 50.0 250.0
0.6611207562140927 -0.7165853585459997 0.8664720058441162 0.0 -2.220446049250313e-16 -1.0 100.0 50.0 250.0
0.729473768418263 -1.7859833742835334 0.8742879927158358 0.283719003200531 -0.9589070081710815 8.777600179119705e-08 100.0 50.0 250.0
-0.04237923150735046 -1.727413346932154 0.8731719851493838 -0.4806390106678009 -0.8769180178642273 -1.105220020221247e-07 100.0 50.0 250.0
0.7165157484464154 -0.8348003532149603 0.21087498962879184 -0.9846069812774658 0.17478400468826294 -3.8809845268220164e-17 100.0 50.0 250.0
-0.09104225164132262 -1.2152608896716273 0.6456259936094285 0.19618399441242218 0.9805669784545898 -4.3589218194246205e-11 100.0 50.0 250.0
1.0153817820004924 -1.5166093613364509 0.1406149864196779 0.5908870100975037 -0.806755006313324 -1.1110881786735442e-10 100.0 50.0 250.0
0.6697467702083096 -1.4632053579547217 0.8664720058441164 0.0 -2.220446049250313e-16 -1.0 100.0 50.0 250.0
0.9785707878522382 -1.0174563582398704 0.8937619924545288 0.0 2.220446049250313e-16 1.0 100.0 50.0 250.0
0.6824257659368024 -1.2348486612894347 0.8664720058441163 0.0 -2.220446049250313e-16 -1.0 100.0 50.0 250.0
0.6885027574948773 -0.6993463541724493 0.8664720058441162 0.0 -2.220446049250313e-16 -1.0 100.0 50.0 250.0
0.8148077713899121 -0.8403993751265814 0.8127320110797882 0.9962109923362732 0.08697240054607391 -1.931175231863456e-17 100.0 50.0 250.0
0.45802526423854684 -0.7506303693511297 0.8937619924545288 0.0 2.220446049250313e-16 1.0 100.0 50.0 250.0
-0.14306423192696716 -1.234732961223345 0.32838699966669094 -0.7508959770202637 0.6604200005531311 -1.4664269810740895e-16 100.0 50.0 250.0
0.33893326545281266 -1.6880083586432746 0.8664720058441164 0.0 -2.220446049250313e-16 -1.0 100.0 50.0 250.0
0.428226892870459 -1.7059883679606727 0.8664720058441164 0.0 -2.220446049250313e-16 -1.0 100.0 50.0 250.0
-0.1098992538996234 -1.4544243569829276 0.893761992454529 0.0 2.220446049250313e-16 1.0 100.0 50.0 250.0
-0.0732992303915515 -0.9693893547513296 0.8937619924545288 0.0 2.220446049250313e-16 1.0 100.0 50.0 250.0
-0.35145422940926696 -1.3963813539006522 0.893761992454529 0.0 2.220446049250313e-16 1.0 100.0 50.0 250.0
0.13955476755423402 -1.5052163507201484 0.8664720058441164 0.0 -2.220446049250313e-16 -1.0 100.0 50.0 250.0
0.8244517731122479 -1.1991366613068393 0.8937619924545289 0.0 2.220446049250313e-16 1.0 100.0 50.0 250.0
0.43628859302176093 -0.9513023699977209 0.8937619924545288 0.0 2.220446049250313e-16 1.0 100.0 50.0 250.0
0.16414576644224976 -1.0791423674084952 0.8937619924545288 0.0 2.220446049250313e-16 1.0 100.0 50.0 250.0
-0.0807002497263446 -1.1509721632458976 0.8937619924545289 0.0 2.220446049250313e-16 1.0 100.0 50.0 250.0
-0.21814724927621032 -1.0212533678271583 0.8937619924545288 0.0 2.220446049250313e-16 1.0 100.0 50.0 250.0
0.6076887684516415 -0.688274374172907 0.8664720058441162 0.0 -2.220446049250313e-16 -1.0 100.0 50.0 250.0
-0.21608826642708923 -0.9588253702380468 0.8664720058441162 0.0 -2.220446049250313e-16 -1.0 100.0 50.0 250.0
0.4580355646662221 -1.5704003478743842 0.893761992454529 0.0 2.220446049250313e-16 1.0 100.0 50.0 250.0
-0.3615012479372516 -1.2290428606205395 0.8937619924545289 0.0 2.220446049250313e-16 1.0 100.0 50.0 250.0
0.18825976425928925 -0.858027359411936 0.8937619924545288 0.0 2.220446049250313e-16 1.0 100.0 50.0 250.0
1.0892037438802227 -1.0226313676097205 0.8937619924545288 0.0 2.220446049250313e-16 1.0 100.0 50.0 250.0
0.719468771164845 -0.8593583609320928 0.7066549956798553 -0.939782977104187 -0.3417719900608063 7.588862650749346e-17 100.0 50.0 250.0
0.11205977076811646 -1.1943315602251103 0.8937619924545289 0.0 2.220446049250313e-16 1.0 100.0 50.0 250.0
0.4863103615693555 -1.7101373578765204 0.8664720058441164 0.0 -2.220446049250313e-16 -1.0 100.0 50.0 250.0
0.9650707530431256 -1.4334993566729834 0.08254399895668046 -0.36150699853897095 0.9323700070381165 -7.879526620348418e-12 100.0 50.0 250.0
-0.054701240117122185 -1.2756946589209845 0.7848840057849885 0.9805740118026733 -0.196151003241539 4.355427202041606e-17 100.0 50.0 250.0
0.7017667579106793 -1.5241913701751044 0.8664720058441164 0.0 -2.220446049250313e-16 -1.0 100.0 50.0 250.0
0.06587576741499757 -1.6714113558986 0.8664720058441164 0.0 -2.220446049250313e-16 -1.0 100.0 50.0 250.0
0.8599727737359509 -1.210849300433766 0.8937619924545289 0.0 2.220446049250313e-16 1.0 100.0 50.0 250.0
0.9484027909688458 -1.2237901603215149 0.8664720058441163 0.0 -2.220446049250313e-16 -1.0 100.0 50.0 250.0
0.47860426331086015 -1.6880863513209632 0.8664720058441164 0.0 -2.220446049250313e-16 -1.0 100.0 50.0 250.0
0.6682667570762143 -1.2371336612262538 0.8937619924545289 0.0 2.220446049250313e-16 1.0 100.0 50.0 250.0
0.6844657647065625 -1.2314527611591628 0.8937619924545289 0.0 2.220446049250313e-16 1.0 100.0 50.0 250.0
0.8065327691487775 -0.8142113591887762 0.2624009996652603 0.8196399807929993 0.5728790163993835 -1.2720469486624165e-16 100.0 50.0 250.0
-0.06154522424416686 -1.7040683533408454 0.8664720058441164 0.0 -2.220446049250313e-16 -1.0 100.0 50.0 250.0
0.7124817656926618 -1.4453493561007789 0.8664720058441164 0.0 -2.220446049250313e-16 -1.0 100.0 50.0 250.0
0.2860837566308484 -1.8174293543555549 0.8902620077133181 -0.09358370304107666 -0.9956110119819641 -1.3735799831857462e-08 100.0 50.0 250.0
0.8296597587518201 -1.6204123701312354 0.8664720058441164 0.0 -2.220446049250313e-16 -1.0 100.0 50.0 250.0
0.869880764429997 -1.420856362149935 0.8664720058441164 0.0 -2.220446049250313e-16 -1.0 100.0 50.0 250.0
-0.05314323430733825 -1.2679062615492156 0.40641319751739513 0.9805740118026733 -0.196151003241539 4.355427202041606e-17 100.0 50.0 250.0
1.1924147891454204 -1.2214044704445413 0.8937619924545289 0.0 2.220446049250313e-16 1.0 100.0 50.0 250.0
1.0187947439603313 -1.0686393584468177 0.8664720058441162 0.0 -2.220446049250313e-16 -1.0 100.0 50.0 250.0
0.940611748640965 -1.4529313649394324 0.43350709602236764 -0.779587984085083 0.6262930035591125 -1.3906498254259437e-16 100.0 50.0 250.0
-0.1786362243242755 -1.6404583658435157 0.8664720058441164 0.0 -2.220446049250313e-16 -1.0 100.0 50.0 250.0
1.1094437527112468 -1.5303003694274238 0.8664720058441164 0.0 -2.220446049250313e-16 -1.0 100.0 50.0 250.0
0.4628195638410554 -1.430423354671221 0.8664720058441164 0.0 -2.220446049250313e-16 -1.0 100.0 50.0 250.0
1.067217736189793 -1.2461429610260537 0.8664720058441163 0.0 -2.220446049250313e-16 -1.0 100.0 50.0 250.0
0.608538760488461 -1.2284225606702974 0.8664720058441163 0.0 -2.220446049250313e-16 -1.0 100.0 50.0 250.0
-0.19076123958306457 -1.2798741589643767 0.8937619924545289 0.0 2.220446049250313e-16 1.0 100.0 50.0 250.0
-0.28657922273354675 -1.5075623597361854 0.893761992454529 0.0 2.220446049250313e-16 1.0 100.0 50.0 250.0
-0.04429522281365539 -0.7556883599021246 0.8937619924545288 0.0 2.220446049250313e-16 1.0 100.0 50.0 250.0
0.999473779147099 -1.4333373661496451 0.7581679821014407 0.40375399589538574 0.9148679971694946 -1.396162024587249e-10 100.0 50.0 250.0
0.5458547609500394 -1.3858483638026526 0.893761992454529 0.0 2.220446049250313e-16 1.0 100.0 50.0 250.0
0.33509296054167603 -1.059474354551058 0.8937619924545288 0.0 2.220446049250313e-16 1.0 100.0 50.0 250.0
0.08469277495665406 -1.723576357529383 0.893761992454529 0.0 2.220446049250313e-16 1.0 100.0 50.0 250.0
-0.3352892113276019 -1.0858563538052848 0.8664720058441162 0.0 -2.220446049250313e-16 -1.0 100.0 50.0 250.0
-0.04501524692254211 -1.0866113658406547 0.8664720058441162 0.0 -2.220446049250313e-16 -1.0 100.0 50.0 250.0
0.8852977740220532 -1.0031883622863105 0.8664720058441162 0.0 -2.220446049250313e-16 -1.0 100.0 50.0 250.0
0.7254687535218701 -0.8123223687865545 0.42927899584174156 -0.7656009793281555 0.6433159708976746 -1.4284484059993709e-16 100.0 50.0 250.0
0.30199076110644196 -1.3944073672749808 0.893761992454529 0.0 2.220446049250313e-16 1.0 100.0 50.0 250.0
-0.1498722148485675 -0.8611173536040594 0.8937619924545288 0.0 2.220446049250313e-16 1.0 100.0 50.0 250.0
-0.0630332243986621 -1.2930496613838485 0.6532989889383317 0.7508959770202637 -0.6604200005531311 1.4664269810740895e-16 100.0 50.0 250.0
0.012446759884785163 -1.2948887626983931 0.8937619924545289 0.0 2.220446049250313e-16 1.0 100.0 50.0 250.0
-0.12529024606423522 -1.3069843630649856 0.8023090064525605 -0.4428179860115051 -0.8966109752655029 -7.662529852603955e-11 100.0 50.0 250.0
-0.07416424279885436 -1.2225148705177715 0.7863399982452394 0.6603209972381592 0.7509829998016357 -2.737761686206763e-10 100.0 50.0 250.0
0.9978867458753095 -1.1600198614754489 0.8937619924545289 0.0 2.220446049250313e-16 1.0 100.0 50.0 250.0
-0.14410022025780822 -1.2361736613669208 0.8645449876785279 -0.8966820240020752 0.44267401099205017 -9.829337588130875e-17 100.0 50.0 250.0
0.680125771706532 -1.276087460980635 0.8664720058441163 0.0 -2.220446049250313e-16 -1.0 100.0 50.0 250.0
0.6733047651700482 -1.6272903587081244 0.8664720058441164 0.0 -2.220446049250313e-16 -1.0 100.0 50.0 250.0
0.25793675953669404 -0.9036953653552343 0.8664720058441162 0.0 -2.220446049250313e-16 -1.0 100.0 50.0 250.0
0.6680707621030316 -1.6804723645903876 0.8664720058441164 0.0 -2.220446049250313e-16 -1.0 100.0 50.0 250.0
1.0542407917432293 -1.2884198631503394 0.8937619924545289 0.0 2.220446049250313e-16 1.0 100.0 50.0 250.0
0.9534367608479962 -1.4397483672358802 0.7939580082893374 -0.5914940237998962 0.8063099980354309 -6.45377765251527e-11 100.0 50.0 250.0
-0.2862252307482257 -1.2950674574234298 0.8937619924545289 0.0 2.220446049250313e-16 1.0 100.0 50.0 250.0
-0.24016323810296203 -1.0325653608300498 0.8937619924545288 0.0 2.220446049250313e-16 1.0 100.0 50.0 250.0
-0.05043223624901916 -0.7976893688895513 0.8664720058441162 0.0 -2.220446049250313e-16 -1.0 100.0 50.0 250.0
-0.17918923621850158 -1.5943253542640021 0.893761992454529 0.0 2.220446049250313e-16 1.0 100.0 50.0 250.0
1.0284207748822674 -1.4974343682982734 0.02632901072502153 0.9148679971694946 -0.40375301241874695 8.965117812981193e-17 100.0 50.0 250.0
0.2361647623233304 -1.309725558326464 0.8664720058441163 0.0 -2.220446049250313e-16 -1.0 100.0 50.0 250.0
-0.230956227833797 -1.191848561108928 0.8937619924545289 0.0 2.220446049250313e-16 1.0 100.0 50.0 250.0
-0.05677822356896545 -1.2445076610305121 0.6676310002803804 0.9472919702529907 0.32037100195884705 -7.113665255938862e-17 100.0 50.0 250.0
0.7486667620591626 -0.8880213703372289 0.8356840014457703 -0.4231860041618347 -0.9060429930686951 -1.5106780414542319e-10 100.0 50.0 250.0
0.7946357714585767 -0.8015893604018499 0.507857795804739 0.6437309980392456 0.7652509808540344 1.6595383062179428e-10 100.0 50.0 250.0
0.6756437557391629 -1.4068933631636908 0.893761992454529 0.0 2.220446049250313e-16 1.0 100.0 50.0 250.0
0.10796576613707398 -1.4045033659198096 0.893761992454529 0.0 2.220446049250313e-16 1.0 100.0 50.0 250.0
0.5066980632595525 -0.7278933729388525 0.8937619924545288 0.0 2.220446049250313e-16 1.0 100.0 50.0 250.0
0.9586017417363629 -1.4360073562123588 0.05666899681091325 -0.36150699853897095 0.9323700070381165 -7.879526620348418e-12 100.0 50.0 250.0
-0.009962232167293084 -1.2693275603809169 0.8664720058441163 0.0 -2.220446049250313e-16 -1.0 100.0 50.0 250.0
0.2612027662448392 -1.0282713677146247 0.8664720058441162 0.0 -2.220446049250313e-16 -1.0 100.0 50.0 250.0
-0.015799225623179924 -1.3943743612029365 0.8664720058441164 0.0 -2.220446049250313e-16 -1.0 100.0 50.0 250.0
-0.3441032481737628 -1.3627573605038932 0.893761992454529 0.0 2.220446049250313e-16 1.0 100.0 50.0 250.0
0.25266976529879426 -0.791379352972727 0.8664720058441162 0.0 -2.220446049250313e-16 -1.0 100.0 50.0 250.0
0.14363574857039307 -0.9486473705031683 0.8664720058441162 0.0 -2.220446049250313e-16 -1.0 100.0 50.0 250.0
0.8298927533082471 -0.7575543727137853 0.8937619924545288 0.0 2.220446049250313e-16 1.0 100.0 50.0 250.0
0.9587527799062238 -1.3941683675505927 0.893761992454529 0.0 2.220446049250313e-16 1.0 100.0 50.0 250.0
0.8848887669496045 -1.453905364439707 0.893761992454529 0.0 2.220446049250313e-16 1.0 100.0 50.0 250.0
0.3249907630137906 -1.759120335743647 0.8664720058441164 0.0 -2.220446049250313e-16 -1.0 100.0 50.0 250.0
1.0602677750043377 -1.0728963668801597 0.8664720058441162 0.0 -2.220446049250313e-16 -1.0 100.0 50.0 250.0
0.6570707696132169 -1.2255908604123404 0.8664720058441163 0.0 -2.220446049250313e-16 -1.0 100.0 50.0 250.0
-0.1439842296190753 -0.9626343752600958 0.8937619924545288 0.0 2.220446049250313e-16 1.0 100.0 50.0 250.0
1.1595017599515423 -0.8947293664672186 0.8775849938392639 0.6813420057296753 0.7319650053977966 -5.0022500082561595e-08 100.0 50.0 250.0
-0.062495232874919426 -1.0215063597419074 0.8664720058441162 0.0 -2.220446049250313e-16 -1.0 100.0 50.0 250.0
0.39978896329326485 -1.5325743462302497 0.8664720058441164 0.0 -2.220446049250313e-16 -1.0 100.0 50.0 250.0
1.0070027398519024 -1.3864973540761283 0.893761992454529 0.0 2.220446049250313e-16 1.0 100.0 50.0 250.0
-0.13292226319985534 -0.9383673574187567 0.8664720058441162 0.0 -2.220446049250313e-16 -1.0 100.0 50.0 250.0
0.4359342331640229 -0.7191033567645361 0.8664720058441162 0.0 -2.220446049250313e-16 -1.0 100.0 50.0 250.0
-0.15093222385125304 -1.5488573517062476 0.8664720058441164 0.0 -2.220446049250313e-16 -1.0 100.0 50.0 250.0
-0.36502823358254577 -1.2604533600964358 0.8664720058441163 0.0 -2.220446049250313e-16 -1.0 100.0 50.0 250.0
0.49465846145672654 -1.734962334797602 0.8664720058441164 0.0 -2.220446049250313e-16 -1.0 100.0 50.0 250.0
0.900258748476933 -1.1834859605290702 0.8937619924545289 0.0 2.220446049250313e-16 1.0 100.0 50.0 250.0
1.02650675052924 -1.5017713512637427 0.815048009157181 0.9148679971694946 -0.40375301241874695 8.965117812981193e-17 100.0 50.0 250.0
0.24775676304621552 -1.243997661338072 0.8664720058441163 0.0 -2.220446049250313e-16 -1.0 100.0 50.0 250.0
0.6520727562360272 -1.0436883624055198 0.8664720058441162 0.0 -2.220446049250313e-16 -1.0 100.0 50.0 250.0
0.08758976930899476 -0.6545393373229315 0.87848100066185 -0.283719003200531 0.9589070081710815 -1.201050250122961e-09 100.0 50.0 250.0
0.14764177674574708 -1.75376038806222 0.8664720058441164 0.0 -2.220446049250313e-16 -1.0 100.0 50.0 250.0
0.18130975837035035 -1.4287013615824988 0.893761992454529 0.0 2.220446049250313e-16 1.0 100.0 50.0 250.0
0.04468175644202088 -1.625119348929148 0.8664720058441164 0.0 -2.220446049250313e-16 -1.0 100.0 50.0 250.0
0.45090386333091115 -0.6016203667380621 0.8809750080108643 0.09364499896764755 0.995606005191803 1.3750699913027463e-08 100.0 50.0 250.0
0.8035837697438702 -0.8726353551604559 0.30107299983501434 0.7652369737625122 -0.6437479853630066 1.4294076708121364e-16 100.0 50.0 250.0
1.1648857879094585 -1.0235843564727118 0.8664720058441162 0.0 -2.220446049250313e-16 -1.0 100.0 50.0 250.0
-0.2502442312784686 -1.1887461598374656 0.8664720058441163 0.0 -2.220446049250313e-16 -1.0 100.0 50.0 250.0
-0.08021721368508483 -1.0860463585116675 0.8664720058441162 0.0 -2.220446049250313e-16 -1.0 100.0 50.0 250.0
0.8128537523202405 -0.856236359045725 0.4381708465516568 0.9846069812774658 -0.17478400468826294 3.8809845268220164e-17 100.0 50.0 250.0
0.5197447600416646 -0.9158363546588232 0.8664720058441162 0.0 -2.220446049250313e-16 -1.0 100.0 50.0 250.0
-0.34882924085335876 -1.4227533544757178 0.8664720058441164 0.0 -2.220446049250313e-16 -1.0 100.0 50.0 250.0
-0.3485542250223651 -0.9656933601357748 0.8664720058441162 0.0 -2.220446049250313e-16 -1.0 100.0 50.0 250.0
0.17424276346487855 -1.4068213607528022 0.893761992454529 0.0 2.220446049250313e-16 1.0 100.0 50.0 250.0
0.14647075409216737 -1.174644960031729 0.8937619924545289 0.0 2.220446049250313e-16 1.0 100.0 50.0 250.0
0.7164457725934491 -1.631175359652262 0.893761992454529 0.0 2.220446049250313e-16 1.0 100.0 50.0 250.0
0.5869417625121579 -1.7718753720977118 0.8664720058441164 0.0 -2.220446049250313e-16 -1.0 100.0 50.0 250.0
0.7777547525815472 -0.8894013668753912 0.8234519958496094 0.34192898869514465 -0.9397259950637817 -1.1643479186895898e-10 100.0 50.0 250.0
1.030844776575993 -1.4888243581511786 0.8178279995918276 0.9883620142936707 -0.15212200582027435 3.377787068276613e-17 100.0 50.0 250.0
0.14128374928755616 -0.7664123679854681 0.8937619924545288 0.0 2.220446049250313e-16 1.0 100.0 50.0 250.0
0.015479772036503303 -1.6121113504626563 0.893761992454529 0.0 2.220446049250313e-16 1.0 100.0 50.0 250.0
1.0599687385014995 -0.9122673477389623 0.8937619924545288 0.0 2.220446049250313e-16 1.0 100.0 50.0 250.0
1.1322447347096904 -1.2313153612770846 0.8664720058441163 0.0 -2.220446049250313e-16 -1.0 100.0 50.0 250.0
-0.14437624936776305 -1.1112463604070952 0.8664720058441163 0.0 -2.220446049250313e-16 -1.0 100.0 50.0 250.0
0.9113357650689587 -1.7185593749739936 0.8813129961490633 0.4806390106678009 -0.8769180178642273 -4.9772001436539255e-08 100.0 50.0 250.0
0.5221577646784291 -0.6820903326728155 0.8664720058441162 0.0 -2.220446049250313e-16 -1.0 100.0 50.0 250.0
-0.09573921685891296 -0.7871873583056738 0.8937619924545288 0.0 2.220446049250313e-16 1.0 100.0 50.0 250.0
0.6815947579793439 -1.3815593625762275 0.893761992454529 0.0 2.220446049250313e-16 1.0 100.0 50.0 250.0
0.588847770040463 -1.120778864190798 0.8664720058441163 0.0 -2.220446049250313e-16 -1.0 100.0 50.0 250.0
0.3943378614835248 -1.7284643556334784 0.893761992454529 0.0 2.220446049250313e-16 1.0 100.0 50.0 250.0
0.7524267720632062 -0.9048673714854528 0.8937619924545288 0.0 2.220446049250313e-16 1.0 100.0 50.0 250.0
0.9412017750195966 -1.5068993474700263 0.4122998975217344 -0.8070629835128784 -0.5904650092124939 1.3110956969264318e-16 100.0 50.0 250.0
0.7203197764806256 -0.8616973664023687 0.13529199361801153 -0.939782977104187 -0.3417719900608063 7.588862650749346e-17 100.0 50.0 250.0
0.13963776702208375 -1.5598423685290626 0.8664720058441164 0.0 -2.220446049250313e-16 -1.0 100.0 50.0 250.0
0.7502097773007855 -0.7944953645922949 0.5732460021972656 -0.3419269919395447 0.9397259950637817 -1.3782421087204956e-10 100.0 50.0 250.0
1.0309767412595257 -1.4879683460452369 0.36957449465990083 0.9883620142936707 -0.15212200582027435 3.377787068276613e-17 100.0 50.0 250.0
-0.07552722221093322 -1.071930354402285 0.8664720058441162 0.0 -2.220446049250313e-16 -1.0 100.0 50.0 250.0
1.0247727918080791 -1.505605360434275 0.742900997400284 0.7799180150032043 -0.625881016254425 1.389735029842909e-16 100.0 50.0 250.0
0.5987787681273923 -0.9955613668420126 0.8937619924545288 0.0 2.220446049250313e-16 1.0 100.0 50.0 250.0
0.8724767553262219 -0.7128113414504339 0.8664720058441162 0.0 -2.220446049250313e-16 -1.0 100.0 50.0 250.0
