ply
format ascii 1.0
element vertex 470
property float x
property float y
property float z
property float nx
property float ny
property float nz
property uchar red
property uchar green
property uchar blue
end_header
2.0874191853081503 1.9708352869698489 0.45330099761486065 0.0 -2.220446049250313e-16 -1.0 100.0 50.0 250.0
1.5679644080673971 2.029894281024643 0.45330099761486065 0.0 -2.220446049250313e-16 -1.0 100.0 50.0 250.0
0.7157152029549398 1.7807932978817904 0.46835100650787365 -0.2784619927406311 -0.2784619927406309 0.919193983078003 100.0 50.0 250.0
0.8751762243782797 2.062947284276196 0.507863998413086 0.0 2.220446049250313e-16 1.0 100.0 50.0 250.0
1.428883309928111 1.992982286805817 0.45330099761486065 0.0 -2.220446049250313e-16 -1.0 100.0 50.0 250.0
0.8318772050415792 2.104013684982964 0.29380550421774393 0.0 -2.220446049250313e-16 -1.0 100.0 50.0 250.0
2.1095602246796408 1.802001286143967 0.2031602039933206 -1.0 0.0 0.0 100.0 50.0 250.0
1.1418142053162375 2.115294184381672 0.5078639984130859 0.0 2.220446049250313e-16 1.0 100.0 50.0 250.0
1.3658822062289038 2.508092272872635 0.5078639984130859 0.0 2.220446049250313e-16 1.0 100.0 50.0 250.0
1.0886272224461355 1.7403652852723086 0.45330099761486065 0.0 -2.220446049250313e-16 -1.0 100.0 50.0 250.0
1.021031204131774 2.527839291686722 0.2600473337806761 0.0 -1.0 2.220446049250313e-16 100.0 50.0 250.0
0.6985941859757223 2.071828286940762 0.5330460071563721 0.0 2.220446049250313e-16 1.0 100.0 50.0 250.0
1.630085203317336 1.7261752968975985 0.45520099997520463 0.0 -1.0 2.220446049250313e-16 100.0 50.0 250.0
2.0066141816651144 1.8463442808339083 0.293805504217744 0.0 -2.220446049250313e-16 -1.0 100.0 50.0 250.0
2.1095602246796408 2.207235883767315 0.4345780014991761 -1.0 0.0 0.0 100.0 50.0 250.0
1.5350672113572874 2.6207222825238192 0.49642600119113917 -1.0 0.0 0.0 100.0 50.0 250.0
0.7748481961762228 2.3306372797438586 0.2414049040526152 1.0 0.0 0.0 100.0 50.0 250.0
1.2678162040983953 2.4787872916409457 0.5078639984130859 0.0 2.220446049250313e-16 1.0 100.0 50.0 250.0
2.243871185449294 1.8242902940461123 0.44384200870990764 1.0 0.0 0.0 100.0 50.0 250.0
2.211192223695449 2.1001730820486033 0.29380550421774393 0.0 -2.220446049250313e-16 -1.0 100.0 50.0 250.0
1.9028041991268911 2.4240362828919375 0.5078639984130859 0.0 2.220446049250313e-16 1.0 100.0 50.0 250.0
2.020084235337905 2.3755882865139926 0.45330099761486053 0.0 -2.220446049250313e-16 -1.0 100.0 50.0 250.0
1.2666252138888159 2.41871127843351 0.29852260276675224 0.0 -1.0 2.220446049250313e-16 100.0 50.0 250.0
1.397843811181716 2.41871127843351 0.37311800569295883 0.0 -1.0 2.220446049250313e-16 100.0 50.0 250.0
2.2956521841561117 1.748943287725159 0.5156100094318391 -0.7070900201797485 0.7071229815483093 4.370019744487812e-09 100.0 50.0 250.0
1.2711192103897848 2.2002160845646346 0.4533009976148606 0.0 -2.220446049250313e-16 -1.0 100.0 50.0 250.0
1.6244142087971487 1.9318372791954959 0.34940730035305034 0.0 1.0 -2.220446049250313e-16 100.0 50.0 250.0
1.0730432006394186 1.9529272800633395 0.507863998413086 0.0 2.220446049250313e-16 1.0 100.0 50.0 250.0
0.7948932382141867 2.41871127843351 0.2656045355834067 0.0 -1.0 2.220446049250313e-16 100.0 50.0 250.0
1.0495462152039328 2.1783650446073795 0.5078639984130859 0.0 2.220446049250313e-16 1.0 100.0 50.0 250.0
0.7496652337586203 1.9345662778565371 0.3975210040807725 -1.0 0.0 0.0 100.0 50.0 250.0
1.9702892037903585 1.921847272510239 0.293805504217744 0.0 -2.220446049250313e-16 -1.0 100.0 50.0 250.0
0.7496652337586203 1.8242592698285067 0.2829692028462888 -1.0 0.0 0.0 100.0 50.0 250.0
0.9538352223908224 2.5088952964493716 0.2938055042177439 0.0 -2.220446049250313e-16 -1.0 100.0 50.0 250.0
0.8565852376496115 2.1588179840096915 0.29380550421774393 0.0 -2.220446049250313e-16 -1.0 100.0 50.0 250.0
2.315224203733138 1.8490782862851107 0.5191870033740998 1.0 0.0 0.0 100.0 50.0 250.0
0.8565852376496115 2.1588179840096915 0.29380550421774393 0.0 -2.220446049250313e-16 -1.0 100.0 50.0 250.0
1.3975005107795515 2.540429282779404 0.5154480040073395 0.0 -1.0 2.220446049250313e-16 100.0 50.0 250.0
1.79171121445053 2.4883182829567874 0.5078639984130859 0.0 2.220446049250313e-16 1.0 100.0 50.0 250.0
1.211764219669036 2.062965284878918 0.45330099761486065 0.0 -2.220446049250313e-16 -1.0 100.0 50.0 250.0
0.9727912279640951 1.822711277599045 0.28886130265891563 0.0 1.0 -2.220446049250313e-16 100.0 50.0 250.0
2.048252198365859 2.156086085210153 0.5078639984130859 0.0 2.220446049250313e-16 1.0 100.0 50.0 250.0
1.8966791960274496 1.9318372791954959 0.42763499915599834 0.0 1.0 -2.220446049250313e-16 100.0 50.0 250.0
2.315224203733138 2.6004122978398287 0.5189630091190338 1.0 0.0 0.0 100.0 50.0 250.0
1.6792342099224844 1.9318372791954959 0.30564460530877124 0.0 1.0 -2.220446049250313e-16 100.0 50.0 250.0
2.2587392064606466 2.6243752723881686 0.5058600008487701 0.0 1.0 -2.220446049250313e-16 100.0 50.0 250.0
0.7975452276741781 1.875748295182892 0.507863998413086 0.0 2.220446049250313e-16 1.0 100.0 50.0 250.0
0.8839761945282736 2.5322922950932467 0.11766800284385678 1.0 0.0 0.0 100.0 50.0 250.0
1.2197942170178213 2.553022283906647 0.3262150026857853 0.0 1.0 -2.220446049250313e-16 100.0 50.0 250.0
0.8839761945282736 2.140919085437962 0.3426205068826676 1.0 0.0 0.0 100.0 50.0 250.0
2.243871185449294 1.9329342877814257 0.21653210371732723 1.0 0.0 0.0 100.0 50.0 250.0
1.9610402020489492 2.4313172882744754 0.2938055042177439 0.0 -2.220446049250313e-16 -1.0 100.0 50.0 250.0
2.243871185449294 1.8259412831017459 0.12809500098228468 1.0 0.0 0.0 100.0 50.0 250.0
0.6783122154747763 2.270946685070702 0.47651299834251404 -1.0 0.0 0.0 100.0 50.0 250.0
2.243871185449294 1.8059882706353152 0.14854600280523314 1.0 0.0 0.0 100.0 50.0 250.0
0.7496652337586203 1.8774302786538088 0.0009669959545136608 -1.0 0.0 0.0 100.0 50.0 250.0
2.2150442334687033 2.41871127843351 0.055785998702049255 0.0 -1.0 2.220446049250313e-16 100.0 50.0 250.0
1.5826844083940306 2.41871127843351 0.3632689043879509 0.0 -1.0 2.220446049250313e-16 100.0 50.0 250.0
2.1407882305657187 2.565520275230118 0.5330460071563721 0.0 2.220446049250313e-16 1.0 100.0 50.0 250.0
1.9564282032524862 2.277214284832188 0.45330099761486053 0.0 -2.220446049250313e-16 -1.0 100.0 50.0 250.0
1.0750602218186178 2.4728522783467257 0.2938055042177439 0.0 -2.220446049250313e-16 -1.0 100.0 50.0 250.0
1.7396082165514746 2.4365762954899752 0.45330099761486053 0.0 -2.220446049250313e-16 -1.0 100.0 50.0 250.0
2.1095602246796408 1.9038692897507632 0.4329169988632203 -1.0 0.0 0.0 100.0 50.0 250.0
2.11220220055931 2.553022283906647 0.09175500273704526 0.0 1.0 -2.220446049250313e-16 100.0 50.0 250.0
1.441824808237485 2.114740684474417 0.4533009976148606 0.0 -2.220446049250313e-16 -1.0 100.0 50.0 250.0
1.7254582079922476 1.8101192897507632 0.5138210058212281 0.0 1.0 -2.220446049250313e-16 100.0 50.0 250.0
2.2321032020127096 2.6005222982117617 0.5330460071563721 0.0 2.220446049250313e-16 1.0 100.0 50.0 250.0
0.69482520547264 1.9465332812020266 0.45330099761486065 0.0 -2.220446049250313e-16 -1.0 100.0 50.0 250.0
0.7496652337586203 2.028178278202721 0.2755817137658597 -1.0 0.0 0.0 100.0 50.0 250.0
0.8388641807114401 1.7975262886235202 0.2652300535701217 0.0 -1.0 2.220446049250313e-16 100.0 50.0 250.0
2.2031112047707357 2.236971486205765 0.29380550421774393 0.0 -2.220446049250313e-16 -1.0 100.0 50.0 250.0
1.3005572142874517 2.1677026644671047 0.4533009976148606 0.0 -2.220446049250313e-16 -1.0 100.0 50.0 250.0
1.936961207059554 1.731535274381348 0.5330460071563723 0.0 2.220446049250313e-16 1.0 100.0 50.0 250.0
2.1095602246796408 2.444406289453217 0.10377000272274017 -1.0 0.0 0.0 100.0 50.0 250.0
0.8143931957756796 2.553022283906647 0.026340007781982394 0.0 1.0 -2.220446049250313e-16 100.0 50.0 250.0
0.7003522249733725 2.6240102833458865 0.4650589972734451 0.0 1.0 -2.220446049250313e-16 100.0 50.0 250.0
0.8266672226464071 2.1159606835195506 0.29380550421774393 0.0 -2.220446049250313e-16 -1.0 100.0 50.0 250.0
1.5194889097338238 1.7975262886235202 0.44577699899673473 0.0 -1.0 2.220446049250313e-16 100.0 50.0 250.0
2.301666233209304 1.7265442794510806 0.5164100080728533 0.0 -1.0 2.220446049250313e-16 100.0 50.0 250.0
1.4744693091934242 1.7975262886235202 0.34120099991559993 0.0 -1.0 2.220446049250313e-16 100.0 50.0 250.0
0.962552222875289 1.9358112847754443 0.507863998413086 0.0 2.220446049250313e-16 1.0 100.0 50.0 250.0
1.9017732175862112 2.6243752723881686 0.5231830179691315 0.0 1.0 -2.220446049250313e-16 100.0 50.0 250.0
0.7348822089707174 2.5841812974163973 0.46978799998760223 -0.27847200632095337 0.27845200896263145 0.9191939830780028 100.0 50.0 250.0
2.2801171871697226 2.5670112854191744 0.45330099761486053 0.0 -2.220446049250313e-16 -1.0 100.0 50.0 250.0
0.7802872392212667 1.7979982978054965 0.45330099761486065 0.0 -2.220446049250313e-16 -1.0 100.0 50.0 250.0
1.422996412483386 2.41871127843351 0.395672008395195 0.0 -1.0 2.220446049250313e-16 100.0 50.0 250.0
2.308261189130477 2.2879352828809703 0.45330099761486053 0.0 -2.220446049250313e-16 -1.0 100.0 50.0 250.0
2.1095602246796408 2.3383382892558062 0.44028399884700775 -1.0 0.0 0.0 100.0 50.0 250.0
1.0450271996533194 2.4817882960984194 0.5078639984130859 0.0 2.220446049250313e-16 1.0 100.0 50.0 250.0
1.4864842095276036 1.9318372791954959 0.3753870055079461 0.0 1.0 -2.220446049250313e-16 100.0 50.0 250.0
1.306325215367011 2.222783785159298 0.4533009976148606 0.0 -2.220446049250313e-16 -1.0 100.0 50.0 250.0
0.7199482056175985 2.2171928843805278 0.5330460071563721 0.0 2.220446049250313e-16 1.0 100.0 50.0 250.0
0.7496652337586203 2.443724293107697 0.2149755023419857 -1.0 0.0 0.0 100.0 50.0 250.0
2.0752781960045614 2.5477122849175418 0.21843060478568074 -0.24253800511360168 6.879960046776334e-08 -0.9701420068740845 100.0 50.0 250.0
2.1095602246796408 2.20892408474774 0.3258196040987969 -1.0 0.0 0.0 100.0 50.0 250.0
2.0734821888481894 2.431405294532486 0.2938055042177439 0.0 -2.220446049250313e-16 -1.0 100.0 50.0 250.0
1.7527882191216269 2.465466279382416 0.2938055042177439 0.0 -2.220446049250313e-16 -1.0 100.0 50.0 250.0
1.39505721208208 2.0308312809416735 0.507863998413086 0.0 2.220446049250313e-16 1.0 100.0 50.0 250.0
1.3118132087265768 2.41871127843351 0.375388003885746 0.0 -1.0 2.220446049250313e-16 100.0 50.0 250.0
0.8839761945282736 2.3450062906691516 0.3055103048682213 1.0 0.0 0.0 100.0 50.0 250.0
0.7658632132088461 1.7975262886235202 0.16679380089044585 0.0 -1.0 2.220446049250313e-16 100.0 50.0 250.0
1.3947522076641836 2.4419962948510134 0.5078639984130859 0.0 2.220446049250313e-16 1.0 100.0 50.0 250.0
1.7410862031256475 1.7929342871853793 0.5330460071563723 0.0 2.220446049250313e-16 1.0 100.0 50.0 250.0
2.315224203733138 1.8867122715661013 0.5111950039863588 1.0 0.0 0.0 100.0 50.0 250.0
1.2472252133166113 2.4284502750584567 0.2938055042177439 0.0 -2.220446049250313e-16 -1.0 100.0 50.0 250.0
2.315224203733138 2.3517582899281466 0.5101470053195953 1.0 0.0 0.0 100.0 50.0 250.0
2.19387922015541 2.5209112948128665 0.0 0.0 -2.220446049250313e-16 -1.0 100.0 50.0 250.0
2.1329751941239157 1.797527272100159 0.07497200369834914 0.0 -1.0 2.220446049250313e-16 100.0 50.0 250.0
1.9615412088906088 1.7975262886235202 0.39194300770759594 0.0 -1.0 2.220446049250313e-16 100.0 50.0 250.0
1.9400551947628775 2.41871127843351 0.3053020052611828 0.0 -1.0 2.220446049250313e-16 100.0 50.0 250.0
1.773955199388198 2.552329290504166 0.45330099761486053 0.0 -2.220446049250313e-16 -1.0 100.0 50.0 250.0
0.8839761945282736 1.9330332910963977 0.33074770122766506 1.0 0.0 0.0 100.0 50.0 250.0
0.8048572274719992 2.41871127843351 0.1591550037264824 0.0 -1.0 2.220446049250313e-16 100.0 50.0 250.0
2.1095602246796408 2.230274583990284 0.42288599908351904 -1.0 0.0 0.0 100.0 50.0 250.0
2.243871185449294 1.8649832791039431 0.22889020293951046 1.0 0.0 0.0 100.0 50.0 250.0
0.9278362127816 2.435197282428452 0.45330099761486053 0.0 -2.220446049250313e-16 -1.0 100.0 50.0 250.0
0.8110002013718405 2.41871127843351 0.1343510001897812 0.0 -1.0 2.220446049250313e-16 100.0 50.0 250.0
2.243871185449294 1.931415278310486 0.04824700951576244 1.0 0.0 0.0 100.0 50.0 250.0
2.0508092376267233 1.921522278184601 0.293805504217744 0.0 -2.220446049250313e-16 -1.0 100.0 50.0 250.0
1.6995892110144415 2.576604295367905 0.45330099761486053 0.0 -2.220446049250313e-16 -1.0 100.0 50.0 250.0
1.2446981998955526 1.989291284079262 0.507863998413086 0.0 2.220446049250313e-16 1.0 100.0 50.0 250.0
0.6783122154747763 2.387988287801453 0.4776510000228882 -1.0 0.0 0.0 100.0 50.0 250.0
0.7836922141587057 2.596411276454636 0.5330460071563721 0.0 2.220446049250313e-16 1.0 100.0 50.0 250.0
0.8839761945282736 1.8795982783982241 0.23965620435774337 1.0 0.0 0.0 100.0 50.0 250.0
0.8189592095886984 1.796273279781052 0.45330099761486065 0.0 -2.220446049250313e-16 -1.0 100.0 50.0 250.0
1.7188442083870688 2.1489774843999827 0.4533009976148606 0.0 -2.220446049250313e-16 -1.0 100.0 50.0 250.0
0.9637081953560629 1.7975262886235202 0.3393100053071977 0.0 -1.0 2.220446049250313e-16 100.0 50.0 250.0
2.006138238576583 2.553022283906647 0.25473800394684076 0.0 1.0 -2.220446049250313e-16 100.0 50.0 250.0
1.788929197457961 2.177410994735145 0.5078639984130859 0.0 2.220446049250313e-16 1.0 100.0 50.0 250.0
0.7119292351280966 1.8876022881218875 0.45330099761486065 0.0 -2.220446049250313e-16 -1.0 100.0 50.0 250.0
1.9435071977650442 2.0176922863671267 0.45330099761486065 0.0 -2.220446049250313e-16 -1.0 100.0 50.0 250.0
1.9257712098633566 2.553022283906647 0.426144003868103 0.0 1.0 -2.220446049250313e-16 100.0 50.0 250.0
0.7411102386986532 1.7437622731873477 0.45330099761486065 0.0 -2.220446049250313e-16 -1.0 100.0 50.0 250.0
2.188588235047988 1.7975262886235202 0.07308399677276625 0.0 -1.0 2.220446049250313e-16 100.0 50.0 250.0
1.5317464093541422 2.41871127843351 0.3826190009713173 0.0 -1.0 2.220446049250313e-16 100.0 50.0 250.0
2.2924322220360556 2.556291270847031 0.4861679971218109 -0.7533550262451172 0.65761399269104 -1.460196392002544e-16 100.0 50.0 250.0
1.2678962084328451 1.9318372791954959 0.4262540042400361 0.0 1.0 -2.220446049250313e-16 100.0 50.0 250.0
1.4242692100679197 1.8934432750889743 0.293805504217744 0.0 -2.220446049250313e-16 -1.0 100.0 50.0 250.0
2.2691282364403524 2.6243752723881686 0.496638998389244 0.0 1.0 -2.220446049250313e-16 100.0 50.0 250.0
1.000907215741805 2.2642230874249423 0.45330099761486053 0.0 -2.220446049250313e-16 -1.0 100.0 50.0 250.0
2.243871185449294 2.0768576821634257 0.38554300367832195 1.0 0.0 0.0 100.0 50.0 250.0
0.7496652337586203 1.8306362813660586 0.35980390012264263 -1.0 0.0 0.0 100.0 50.0 250.0
1.8663842114483633 1.8877092784592593 0.293805504217744 0.0 -2.220446049250313e-16 -1.0 100.0 50.0 250.0
1.854196223882369 2.328221279973694 0.45330099761486053 0.0 -2.220446049250313e-16 -1.0 100.0 50.0 250.0
1.7506012054955282 1.7975262886235202 0.40943899750709545 0.0 -1.0 2.220446049250313e-16 100.0 50.0 250.0
2.148132238057784 1.7975262886235202 0.4059100002050401 0.0 -1.0 2.220446049250313e-16 100.0 50.0 250.0
1.9371492001091757 2.437035281057068 0.2938055042177439 0.0 -2.220446049250313e-16 -1.0 100.0 50.0 250.0
0.8970302077805319 1.9318372791954959 0.43607400357723247 0.0 1.0 -2.220446049250313e-16 100.0 50.0 250.0
1.6311182114159384 2.6243752723881686 0.4714850038290023 0.0 1.0 -2.220446049250313e-16 100.0 50.0 250.0
1.7395952078377523 2.3340952879139865 0.5078639984130859 0.0 2.220446049250313e-16 1.0 100.0 50.0 250.0
2.1731171938454428 1.797527272100159 0.3631519004702569 0.0 -1.0 2.220446049250313e-16 100.0 50.0 250.0
1.9677942129647055 1.9318372791954959 0.33158240467309963 0.0 1.0 -2.220446049250313e-16 100.0 50.0 250.0
0.7731672259842672 2.2316790854880297 0.2566183935850859 0.0 -0.2425380051136019 -0.9701420068740845 100.0 50.0 250.0
2.243871185449294 2.52501629650087 0.3485241010785103 1.0 0.0 0.0 100.0 50.0 250.0
2.1095602246796408 2.316727284187981 0.44055700302124023 -1.0 0.0 0.0 100.0 50.0 250.0
2.243871185449294 2.0403782910057986 0.3817400038242341 1.0 0.0 0.0 100.0 50.0 250.0
1.592504608896903 2.5359752958962405 0.5078639984130859 0.0 2.220446049250313e-16 1.0 100.0 50.0 250.0
1.1971532138859549 1.9318372791954959 0.36922800540924083 0.0 1.0 -2.220446049250313e-16 100.0 50.0 250.0
1.0174642237698355 2.6243752723881686 0.4719450026750564 0.0 1.0 -2.220446049250313e-16 100.0 50.0 250.0
0.8984601828133383 2.055584285254189 0.507863998413086 0.0 2.220446049250313e-16 1.0 100.0 50.0 250.0
0.8909252020394125 2.1107266879031146 0.45330099761486065 0.0 -2.220446049250313e-16 -1.0 100.0 50.0 250.0
2.1203881832634726 2.41871127843351 0.3686260059475899 0.0 -1.0 2.220446049250313e-16 100.0 50.0 250.0
1.5191049105351486 2.327994290585228 0.5078639984130859 0.0 2.220446049250313e-16 1.0 100.0 50.0 250.0
2.1762551995789328 2.543886292571732 0.0 0.0 -2.220446049250313e-16 -1.0 100.0 50.0 250.0
1.6023452090894499 2.517959285373398 0.2938055042177439 0.0 -2.220446049250313e-16 -1.0 100.0 50.0 250.0
1.9959872099434652 2.5500512903878176 0.23825340345501897 -0.24253800511360168 6.879960046776334e-08 -0.9701420068740845 100.0 50.0 250.0
2.315224203733138 2.1811723945053005 0.48708400130271917 1.0 0.0 0.0 100.0 50.0 250.0
1.608325208989314 2.373147282595345 0.45330099761486053 0.0 -2.220446049250313e-16 -1.0 100.0 50.0 250.0
1.392026211587123 2.4131262785145724 0.45330099761486053 0.0 -2.220446049250313e-16 -1.0 100.0 50.0 250.0
1.2705322089468756 2.5615392810055697 0.5330460071563721 0.0 2.220446049250313e-16 1.0 100.0 50.0 250.0
2.0119111868416586 1.9318372791954959 0.4026859998703004 0.0 1.0 -2.220446049250313e-16 100.0 50.0 250.0
0.8182981940781393 1.7975262886235202 0.13031899929046645 0.0 -1.0 2.220446049250313e-16 100.0 50.0 250.0
1.9988432261025229 2.41871127843351 0.4085720032453537 0.0 -1.0 2.220446049250313e-16 100.0 50.0 250.0
1.5210632099633732 1.948491278881737 0.507863998413086 0.0 2.220446049250313e-16 1.0 100.0 50.0 250.0
2.216147217420272 1.9318372791954959 0.10654000937938701 0.0 1.0 -2.220446049250313e-16 100.0 50.0 250.0
1.2972072097336569 2.2798262870261157 0.5078639984130859 0.0 2.220446049250313e-16 1.0 100.0 50.0 250.0
1.2698172065293112 1.7261752968975985 0.48745299875736253 0.0 -1.0 2.220446049250313e-16 100.0 50.0 250.0
1.325325209168128 2.4856582766720736 0.5078639984130859 0.0 2.220446049250313e-16 1.0 100.0 50.0 250.0
2.1095602246796408 2.280367281133839 0.3996659964323044 -1.0 0.0 0.0 100.0 50.0 250.0
0.9340142342125692 1.7900492733666384 0.45330099761486065 0.0 -2.220446049250313e-16 -1.0 100.0 50.0 250.0
2.0205102297341146 1.9169592744061434 0.507863998413086 0.0 2.220446049250313e-16 1.0 100.0 50.0 250.0
1.808348211911849 2.3430922812172854 0.45330099761486053 0.0 -2.220446049250313e-16 -1.0 100.0 50.0 250.0
2.1095602246796408 2.408216286296555 0.4035950005054474 -1.0 0.0 0.0 100.0 50.0 250.0
0.7496652337586203 2.4649702793309176 0.34816230088472366 -1.0 0.0 0.0 100.0 50.0 250.0
1.0924602183377066 2.6243752723881686 0.5135139971971512 0.0 1.0 -2.220446049250313e-16 100.0 50.0 250.0
0.9267732235466757 2.4128892904469454 0.45330099761486053 0.0 -2.220446049250313e-16 -1.0 100.0 50.0 250.0
0.8902111979996481 2.433202285165497 0.2938055042177439 0.0 -2.220446049250313e-16 -1.0 100.0 50.0 250.0
2.243871185449294 2.0785524880835498 0.3022104017436505 1.0 0.0 0.0 100.0 50.0 250.0
0.9191221925293722 2.4836072808453524 0.5078639984130859 0.0 2.220446049250313e-16 1.0 100.0 50.0 250.0
1.9076552125489035 1.7484702950665438 0.45330099761486065 0.0 -2.220446049250313e-16 -1.0 100.0 50.0 250.0
0.7202701899086752 1.8643152898499453 0.5007340013980867 0.0 1.0 -2.220446049250313e-16 100.0 50.0 250.0
2.1371531816994467 1.7321862763115847 0.4533009976148607 0.0 -2.220446049250313e-16 -1.0 100.0 50.0 250.0
1.4918813598205962 2.3763712829300845 0.5078639984130859 0.0 2.220446049250313e-16 1.0 100.0 50.0 250.0
1.469771310207776 2.2979322856614077 0.5078639984130859 0.0 2.220446049250313e-16 1.0 100.0 50.0 250.0
2.168305191663436 2.553022283906647 0.06410600244998929 0.0 1.0 -2.220446049250313e-16 100.0 50.0 250.0
2.2189562055146017 2.4296142941662753 0.5078639984130859 0.0 2.220446049250313e-16 1.0 100.0 50.0 250.0
1.2521822037970343 1.7975262886235202 0.39319300651550304 0.0 -1.0 2.220446049250313e-16 100.0 50.0 250.0
1.3336652102743902 1.797527272100159 0.4491410106420518 0.0 -1.0 2.220446049250313e-16 100.0 50.0 250.0
1.6600192072665014 1.8409232979962313 0.293805504217744 0.0 -2.220446049250313e-16 -1.0 100.0 50.0 250.0
0.8839761945282736 2.529612291450211 0.01912699639797208 1.0 0.0 0.0 100.0 50.0 250.0
2.298938188222579 1.787173289651581 0.4753659963607789 -0.7533619999885559 -0.6576060056686401 -1.497470044462412e-08 100.0 50.0 250.0
1.3577152076041021 2.4069312846610034 0.5078639984130859 0.0 2.220446049250313e-16 1.0 100.0 50.0 250.0
1.9207752081429281 2.2694118878194773 0.45330099761486053 0.0 -2.220446049250313e-16 -1.0 100.0 50.0 250.0
1.601802210775546 1.8240102714249575 0.507863998413086 0.0 2.220446049250313e-16 1.0 100.0 50.0 250.0
1.797199222711257 1.8101192897507632 0.528852015733719 0.0 1.0 -2.220446049250313e-16 100.0 50.0 250.0
1.1342022153412619 1.9720342791029895 0.507863998413086 0.0 2.220446049250313e-16 1.0 100.0 50.0 250.0
0.806207213071517 1.9318372791954959 0.161182001233101 0.0 1.0 -2.220446049250313e-16 100.0 50.0 250.0
1.3021882059847631 2.41871127843351 0.4081120043992996 0.0 -1.0 2.220446049250313e-16 100.0 50.0 250.0
0.8508001896416464 2.553022283906647 0.450764000415802 0.0 1.0 -2.220446049250313e-16 100.0 50.0 250.0
1.7728762063061514 2.504763293857285 0.5078639984130859 0.0 2.220446049250313e-16 1.0 100.0 50.0 250.0
1.7655652197872915 2.553022283906647 0.30183830484747887 0.0 1.0 -2.220446049250313e-16 100.0 50.0 250.0
2.104093227056197 1.7975262886235202 0.3601159006357194 0.0 -1.0 2.220446049250313e-16 100.0 50.0 250.0
2.2400831910645285 1.797527272100159 0.386442005634308 0.0 -1.0 2.220446049250313e-16 100.0 50.0 250.0
1.4984808695599132 2.44477229177446 0.2938055042177439 0.0 -2.220446049250313e-16 -1.0 100.0 50.0 250.0
2.243871185449294 1.8482482916066134 0.31452520191669475 1.0 0.0 0.0 100.0 50.0 250.0
1.1403852137600698 2.494758296603867 0.5078639984130859 0.0 2.220446049250313e-16 1.0 100.0 50.0 250.0
0.7496652337586203 2.0449892914244616 0.2601152635179461 -1.0 0.0 0.0 100.0 50.0 250.0
1.4055516081725874 1.7342812901684725 0.4533009976148607 0.0 -2.220446049250313e-16 -1.0 100.0 50.0 250.0
1.0558742019211569 1.7455862945267642 0.5330460071563723 0.0 2.220446049250313e-16 1.0 100.0 50.0 250.0
2.163235220578841 2.4971242731759036 0.0 0.0 -2.220446049250313e-16 -1.0 100.0 50.0 250.0
0.8337892028366842 2.41871127843351 0.254506703466177 0.0 -1.0 2.220446049250313e-16 100.0 50.0 250.0
1.3153572114979544 2.12361478417606 0.5078639984130859 0.0 2.220446049250313e-16 1.0 100.0 50.0 250.0
1.5284681091880121 2.3269982820698702 0.5078639984130859 0.0 2.220446049250313e-16 1.0 100.0 50.0 250.0
1.6524062040125647 2.3689382857033694 0.45330099761486053 0.0 -2.220446049250313e-16 -1.0 100.0 50.0 250.0
2.243871185449294 2.3179902917096102 0.41277100145816803 1.0 0.0 0.0 100.0 50.0 250.0
2.243871185449294 1.8391812926480258 0.37432800233364116 1.0 0.0 0.0 100.0 50.0 250.0
2.1095602246796408 1.8407272881218875 0.2621090738102795 -1.0 0.0 0.0 100.0 50.0 250.0
1.9302682014977255 2.6243752723881686 0.46238800883293146 0.0 1.0 -2.220446049250313e-16 100.0 50.0 250.0
0.875337216523818 2.373066279883095 0.2938055042177439 0.0 -2.220446049250313e-16 -1.0 100.0 50.0 250.0
2.0622222157990255 1.7975262886235202 0.28427800349891197 0.0 -1.0 2.220446049250313e-16 100.0 50.0 250.0
1.6015372085248747 2.5892352944561923 0.5330460071563721 0.0 2.220446049250313e-16 1.0 100.0 50.0 250.0
2.243871185449294 2.0505962854573214 0.41185100376606 1.0 0.0 0.0 100.0 50.0 250.0
1.000684204963378 1.9843772834488833 0.45330099761486065 0.0 -2.220446049250313e-16 -1.0 100.0 50.0 250.0
0.8654352160965719 2.3637462890097583 0.2938055042177439 0.0 -2.220446049250313e-16 -1.0 100.0 50.0 250.0
2.243871185449294 2.022328290934273 0.35924730449914943 1.0 0.0 0.0 100.0 50.0 250.0
1.4944232196876475 1.9467792844721759 0.45330099761486065 0.0 -2.220446049250313e-16 -1.0 100.0 50.0 250.0
1.1900312038933554 1.9977302885004962 0.45330099761486065 0.0 -2.220446049250313e-16 -1.0 100.0 50.0 250.0
1.4214820074712553 2.3641032910296405 0.45330099761486053 0.0 -2.220446049250313e-16 -1.0 100.0 50.0 250.0
2.139070186284713 1.8819432741353 0.507863998413086 0.0 2.220446049250313e-16 1.0 100.0 50.0 250.0
2.163757238057784 1.9318372791954959 0.24728430435061466 0.0 1.0 -2.220446049250313e-16 100.0 50.0 250.0
0.7611981960808554 2.41871127843351 0.015884995460510254 0.0 -1.0 2.220446049250313e-16 100.0 50.0 250.0
1.4341781097327986 2.0473632848212207 0.45330099761486065 0.0 -2.220446049250313e-16 -1.0 100.0 50.0 250.0
0.7622552248513021 1.8854572957703555 0.5201309919357301 1.0 0.0 0.0 100.0 50.0 250.0
0.914214226869277 2.447119284267136 0.5078639984130859 0.0 2.220446049250313e-16 1.0 100.0 50.0 250.0
1.1549802156960287 2.2632429858991587 0.45330099761486053 0.0 -2.220446049250313e-16 -1.0 100.0 50.0 250.0
0.8543511959587851 2.41871127843351 0.24628080427646637 0.0 -1.0 2.220446049250313e-16 100.0 50.0 250.0
1.556422508773736 1.9318372791954959 0.3532976061105729 0.0 1.0 -2.220446049250313e-16 100.0 50.0 250.0
0.7974062296425619 2.2641881814548457 0.5078639984130859 0.0 2.220446049250313e-16 1.0 100.0 50.0 250.0
0.8838172289406576 1.7975262886235202 0.03817300498485579 0.0 -1.0 2.220446049250313e-16 100.0 50.0 250.0
1.2246042224442282 2.142092782849976 0.4533009976148606 0.0 -2.220446049250313e-16 -1.0 100.0 50.0 250.0
1.3065102132832327 1.8730812853524172 0.507863998413086 0.0 2.220446049250313e-16 1.0 100.0 50.0 250.0
1.3549162032877722 2.6243752723881686 0.5278609991073608 0.0 1.0 -2.220446049250313e-16 100.0 50.0 250.0
1.052752200034789 1.9318372791954959 0.3386371061205865 0.0 1.0 -2.220446049250313e-16 100.0 50.0 250.0
1.1264331969296255 2.405417281980225 0.5078639984130859 0.0 2.220446049250313e-16 1.0 100.0 50.0 250.0
0.6807102295433798 1.7261752968975985 0.4558570086956026 0.0 -1.0 2.220446049250313e-16 100.0 50.0 250.0
1.1499352189575949 1.9994952863404238 0.45330099761486065 0.0 -2.220446049250313e-16 -1.0 100.0 50.0 250.0
1.2412982019459524 2.353357288832375 0.5078639984130859 0.0 2.220446049250313e-16 1.0 100.0 50.0 250.0
2.1095602246796408 2.1994693855145657 0.3403476029634476 -1.0 0.0 0.0 100.0 50.0 250.0
2.205287191537551 2.41871127843351 0.06369900703430176 0.0 -1.0 2.220446049250313e-16 100.0 50.0 250.0
2.1948482128655233 2.604309279317566 0.5330460071563721 0.0 2.220446049250313e-16 1.0 100.0 50.0 250.0
0.7622552248513021 2.072759281689831 0.5094989985227586 1.0 0.0 0.0 100.0 50.0 250.0
1.2257922026192465 2.0813874861547434 0.45330099761486065 0.0 -2.220446049250313e-16 -1.0 100.0 50.0 250.0
2.1925312015091696 2.553022283906647 0.0490550100803375 0.0 1.0 -2.220446049250313e-16 100.0 50.0 250.0
2.0613102051293173 2.319106284374901 0.5078639984130859 0.0 2.220446049250313e-16 1.0 100.0 50.0 250.0
2.0889802309548178 1.9254932886311495 0.293805504217744 0.0 -2.220446049250313e-16 -1.0 100.0 50.0 250.0
0.7496652337586203 2.4489682799527133 0.22461040318012238 -1.0 0.0 0.0 100.0 50.0 250.0
1.2973832073485174 2.553022283906647 0.4063280075788498 0.0 1.0 -2.220446049250313e-16 100.0 50.0 250.0
0.6783122154747763 2.033693287367531 0.48786699771881115 -1.0 0.0 0.0 100.0 50.0 250.0
1.0061762067353048 1.766154277915665 0.45330099761486065 0.0 -2.220446049250313e-16 -1.0 100.0 50.0 250.0
2.2060091825997152 2.553022283906647 0.27835740335285664 0.0 1.0 -2.220446049250313e-16 100.0 50.0 250.0
1.5400596107219973 2.481522280568787 0.5078639984130859 0.0 2.220446049250313e-16 1.0 100.0 50.0 250.0
2.315224203733138 2.6195252722451174 0.4969900101423263 1.0 0.0 0.0 100.0 50.0 250.0
2.11609122481697 1.7261752968975985 0.46639700233936326 0.0 -1.0 2.220446049250313e-16 100.0 50.0 250.0
1.9478732081925192 2.0091442799517596 0.45330099761486065 0.0 -2.220446049250313e-16 -1.0 100.0 50.0 250.0
0.8839761945282736 2.161747784199723 0.3719910010695458 1.0 0.0 0.0 100.0 50.0 250.0
2.2186882230316916 1.9476122891852343 0.2374434042721988 -1.0 0.0 0.0 100.0 50.0 250.0
1.0471202167546072 2.4951772874543154 0.5078639984130859 0.0 2.220446049250313e-16 1.0 100.0 50.0 250.0
1.7980072232758322 2.608782280082413 0.45330099761486053 0.0 -2.220446049250313e-16 -1.0 100.0 50.0 250.0
2.231281194356612 2.2605990877696955 0.5246559977531433 -1.0 0.0 0.0 100.0 50.0 250.0
2.2189562055146017 2.4296142941662753 0.5078639984130859 0.0 2.220446049250313e-16 1.0 100.0 50.0 250.0
0.8839761945282736 2.3073352909037554 0.377689003944397 1.0 0.0 0.0 100.0 50.0 250.0
0.9587111803566732 2.6243752723881686 0.48532800376415247 0.0 1.0 -2.220446049250313e-16 100.0 50.0 250.0
0.9566021892105856 1.7975262886235202 0.30628980323672306 0.0 -1.0 2.220446049250313e-16 100.0 50.0 250.0
0.679325196412734 2.2755042871782267 0.5330460071563721 0.0 2.220446049250313e-16 1.0 100.0 50.0 250.0
2.1095602246796408 2.2403398862430537 0.4318390041589737 -1.0 0.0 0.0 100.0 50.0 250.0
0.9987932178055563 1.992989290351578 0.507863998413086 0.0 2.220446049250313e-16 1.0 100.0 50.0 250.0
1.483706309912137 1.8871352857300723 0.507863998413086 0.0 2.220446049250313e-16 1.0 100.0 50.0 250.0
1.5726714092170515 2.3012812918374026 0.45330099761486053 0.0 -2.220446049250313e-16 -1.0 100.0 50.0 250.0
0.7496652337586203 2.101705085332104 0.2573028933256865 -1.0 0.0 0.0 100.0 50.0 250.0
0.7761981817757406 1.7261752968975985 0.5001050084829333 0.0 -1.0 2.220446049250313e-16 100.0 50.0 250.0
2.1171931954895773 2.2002913838574374 0.5078639984130859 0.0 2.220446049250313e-16 1.0 100.0 50.0 250.0
0.828850183156661 1.740093279475876 0.5330460071563723 0.0 2.220446049250313e-16 1.0 100.0 50.0 250.0
0.8393782111679831 1.8685422724434817 0.507863998413086 0.0 2.220446049250313e-16 1.0 100.0 50.0 250.0
0.9283712240731039 2.156834984044143 0.5078639984130859 0.0 2.220446049250313e-16 1.0 100.0 50.0 250.0
0.8401092025315084 2.41871127843351 0.20435720309615135 0.0 -1.0 2.220446049250313e-16 100.0 50.0 250.0
1.1954452129875937 2.2326273842105353 0.4533009976148606 0.0 -2.220446049250313e-16 -1.0 100.0 50.0 250.0
1.4132537129198828 1.9318372791954959 0.3193875029683114 0.0 1.0 -2.220446049250313e-16 100.0 50.0 250.0
1.7190092089449682 1.9318372791954959 0.39805200695991527 0.0 1.0 -2.220446049250313e-16 100.0 50.0 250.0
1.052590224412612 2.5592732912251437 0.45330099761486053 0.0 -2.220446049250313e-16 -1.0 100.0 50.0 250.0
1.3485422166859427 2.2734852841445887 0.5078639984130859 0.0 2.220446049250313e-16 1.0 100.0 50.0 250.0
1.657615202931098 1.9318372791954959 0.33811580389738094 0.0 1.0 -2.220446049250313e-16 100.0 50.0 250.0
1.3458672049319067 1.8906422740170443 0.293805504217744 0.0 -2.220446049250313e-16 -1.0 100.0 50.0 250.0
1.9590601953541555 1.8443442767807925 0.293805504217744 0.0 -2.220446049250313e-16 -1.0 100.0 50.0 250.0
1.5106618092259088 1.8688742703148806 0.507863998413086 0.0 2.220446049250313e-16 1.0 100.0 50.0 250.0
2.243871185449294 2.2739076873609507 0.3706990033388138 1.0 0.0 0.0 100.0 50.0 250.0
0.9290501805817404 2.4945432728478396 0.5078639984130859 0.0 2.220446049250313e-16 1.0 100.0 50.0 250.0
1.6649352046524801 2.553022283906647 0.3606807067990303 0.0 1.0 -2.220446049250313e-16 100.0 50.0 250.0
0.9165951940094748 1.7890692835995639 0.5330460071563723 0.0 2.220446049250313e-16 1.0 100.0 50.0 250.0
1.0753701957737722 1.9318372791954959 0.3462459072470666 0.0 1.0 -2.220446049250313e-16 100.0 50.0 250.0
0.8839761945282736 2.2020505851456607 0.3402149006724358 1.0 0.0 0.0 100.0 50.0 250.0
2.315224203733138 2.292908284659096 0.5008480101823807 1.0 0.0 0.0 100.0 50.0 250.0
2.0179232093369284 2.5578092819401705 0.45330099761486053 0.0 -2.220446049250313e-16 -1.0 100.0 50.0 250.0
1.486975539927713 2.4928012973019564 0.5078639984130859 0.0 2.220446049250313e-16 1.0 100.0 50.0 250.0
1.0379682215725698 2.41871127843351 0.3028707019984722 0.0 -1.0 2.220446049250313e-16 100.0 50.0 250.0
1.9617062243496695 2.0253142899224246 0.507863998413086 0.0 2.220446049250313e-16 1.0 100.0 50.0 250.0
1.9669382008587637 1.7975262886235202 0.33651970326900493 0.0 -1.0 2.220446049250313e-16 100.0 50.0 250.0
1.0932092103039541 2.41871127843351 0.4422150105237961 0.0 -1.0 2.220446049250313e-16 100.0 50.0 250.0
1.8040892216240683 2.238983284527966 0.5078639984130859 0.0 2.220446049250313e-16 1.0 100.0 50.0 250.0
1.7866912218605795 2.4117592906901324 0.45330099761486053 0.0 -2.220446049250313e-16 -1.0 100.0 50.0 250.0
1.5604510116254606 1.7975262886235202 0.3831160068511964 0.0 -1.0 2.220446049250313e-16 100.0 50.0 250.0
1.2203092011486807 2.41871127843351 0.4314590096473694 0.0 -1.0 2.220446049250313e-16 100.0 50.0 250.0
1.8930752011811056 1.9034722930142367 0.507863998413086 0.0 2.220446049250313e-16 1.0 100.0 50.0 250.0
2.1708231898819723 2.2288307844051802 0.29380550421774393 0.0 -2.220446049250313e-16 -1.0 100.0 50.0 250.0
0.8867602082764425 2.41871127843351 0.33511390537023544 0.0 -1.0 2.220446049250313e-16 100.0 50.0 250.0
1.2457912000691214 2.545479286307999 0.5330460071563721 0.0 2.220446049250313e-16 1.0 100.0 50.0 250.0
2.1095602246796408 2.432067293519684 0.28491330333054066 -1.0 0.0 0.0 100.0 50.0 250.0
2.243871185449294 2.3753352796980822 0.4200880080461502 1.0 0.0 0.0 100.0 50.0 250.0
1.967419210342101 2.2564856818267787 0.45330099761486053 0.0 -2.220446049250313e-16 -1.0 100.0 50.0 250.0
2.1943562361275473 2.553022283906647 0.3249216042459011 0.0 1.0 -2.220446049250313e-16 100.0 50.0 250.0
1.4746830104713955 2.41871127843351 0.35874320566654205 0.0 -1.0 2.220446049250313e-16 100.0 50.0 250.0
2.315224203733138 2.1429866848835433 0.5104050040245056 1.0 0.0 0.0 100.0 50.0 250.0
1.2592002036845007 2.6243752723881686 0.5139740109443665 0.0 1.0 -2.220446049250313e-16 100.0 50.0 250.0
0.6783122154747763 2.003556284899422 0.4999839961528779 -1.0 0.0 0.0 100.0 50.0 250.0
2.1276362272774496 2.003803286547371 0.507863998413086 0.0 2.220446049250313e-16 1.0 100.0 50.0 250.0
1.6524062040125647 2.3689382857033694 0.45330099761486053 0.0 -2.220446049250313e-16 -1.0 100.0 50.0 250.0
1.9629222187077322 1.9318372791954959 0.36401380598545086 0.0 1.0 -2.220446049250313e-16 100.0 50.0 250.0
1.2388482126271048 2.1367845831760848 0.4533009976148606 0.0 -2.220446049250313e-16 -1.0 100.0 50.0 250.0
1.7008232059752264 2.0365632808157885 0.45330099761486065 0.0 -2.220446049250313e-16 -1.0 100.0 50.0 250.0
0.9710312220131674 2.4837402886101687 0.5078639984130859 0.0 2.220446049250313e-16 1.0 100.0 50.0 250.0
0.8839761945282736 2.264333385820099 0.3443069010972977 1.0 0.0 0.0 100.0 50.0 250.0
0.7496652337586203 2.077154386634537 0.32745960354805 -1.0 0.0 0.0 100.0 50.0 250.0
1.1416492196594992 2.553022283906647 0.35040900111198425 0.0 1.0 -2.220446049250313e-16 100.0 50.0 250.0
0.7113612028633871 1.7261752968975985 0.4751639962196352 0.0 -1.0 2.220446049250313e-16 100.0 50.0 250.0
0.7748481961762228 1.962191287274071 0.2532727038487793 1.0 0.0 0.0 100.0 50.0 250.0
0.9775591823136129 2.3346872812458956 0.5078639984130859 0.0 2.220446049250313e-16 1.0 100.0 50.0 250.0
1.2738702031647482 1.7691772764870608 0.5330460071563723 0.0 2.220446049250313e-16 1.0 100.0 50.0 250.0
1.724053207305602 2.0768140813657725 0.507863998413086 0.0 2.220446049250313e-16 1.0 100.0 50.0 250.0
0.7496652337586203 1.9426212793538058 0.33250330388546 -1.0 0.0 0.0 100.0 50.0 250.0
1.6457812073504248 1.9318372791954959 0.36869800090789806 0.0 1.0 -2.220446049250313e-16 100.0 50.0 250.0
2.060161206391982 1.735589284295746 0.4533009976148607 0.0 -2.220446049250313e-16 -1.0 100.0 50.0 250.0
1.9569461974179068 2.420497286910721 0.5078639984130859 0.0 2.220446049250313e-16 1.0 100.0 50.0 250.0
0.8839761945282736 2.4616562908837283 0.24638830311596394 1.0 0.0 0.0 100.0 50.0 250.0
1.0987232061898031 1.9703302866169894 0.507863998413086 0.0 2.220446049250313e-16 1.0 100.0 50.0 250.0
0.7496652337586203 2.499484289283463 0.11329700052738187 -1.0 0.0 0.0 100.0 50.0 250.0
1.9974902006661215 2.462750274533936 0.2938055042177439 0.0 -2.220446049250313e-16 -1.0 100.0 50.0 250.0
0.9367451998268881 1.7639612740227664 0.5330460071563723 0.0 2.220446049250313e-16 1.0 100.0 50.0 250.0
1.6585662099396505 2.597748298043915 0.5330460071563721 0.0 2.220446049250313e-16 1.0 100.0 50.0 250.0
2.243871185449294 2.4122612810084307 0.410847008228302 1.0 0.0 0.0 100.0 50.0 250.0
2.1963281961952963 2.404886279101082 0.5078639984130859 0.0 2.220446049250313e-16 1.0 100.0 50.0 250.0
0.7830592128311911 1.9318372791954959 0.026214003562927357 0.0 1.0 -2.220446049250313e-16 100.0 50.0 250.0
2.2755161854302206 1.9272732919403994 0.5330460071563722 0.0 2.220446049250313e-16 1.0 100.0 50.0 250.0
1.7364922049319067 1.765587288732239 0.45330099761486065 0.0 -2.220446049250313e-16 -1.0 100.0 50.0 250.0
1.788929197457961 2.177410994735145 0.5078639984130859 0.0 2.220446049250313e-16 1.0 100.0 50.0 250.0
1.5765937077676573 2.41871127843351 0.3722120001912117 0.0 -1.0 2.220446049250313e-16 100.0 50.0 250.0
0.9032622310196676 2.540429282779404 0.5202910006046295 0.0 -1.0 2.220446049250313e-16 100.0 50.0 250.0
2.0675521823441305 1.7975262886235202 0.2236295044422151 0.0 -1.0 2.220446049250313e-16 100.0 50.0 250.0
0.9863391849076071 2.3416312819668734 0.45330099761486053 0.0 -2.220446049250313e-16 -1.0 100.0 50.0 250.0
1.7863792213475027 1.9623332804390872 0.45330099761486065 0.0 -2.220446049250313e-16 -1.0 100.0 50.0 250.0
1.7832992109333792 2.553022283906647 0.3339183032512665 0.0 1.0 -2.220446049250313e-16 100.0 50.0 250.0
1.0399142238175192 1.830696273441025 0.507863998413086 0.0 2.220446049250313e-16 1.0 100.0 50.0 250.0
0.7684511872803488 2.5977972930619204 0.5330460071563721 0.0 2.220446049250313e-16 1.0 100.0 50.0 250.0
1.0693962010418692 2.553022283906647 0.4385790079832077 0.0 1.0 -2.220446049250313e-16 100.0 50.0 250.0
0.6783122154747763 2.1717001046841675 0.5248439908027649 -1.0 0.0 0.0 100.0 50.0 250.0
1.1527482005631247 2.340252283806511 0.5078639984130859 0.0 2.220446049250313e-16 1.0 100.0 50.0 250.0
0.856828186181716 2.553022283906647 0.06434300541877744 0.0 1.0 -2.220446049250313e-16 100.0 50.0 250.0
0.7496652337586203 2.444534290427872 0.40453600883483887 -1.0 0.0 0.0 100.0 50.0 250.0
0.7896442147766867 1.9318372791954959 0.12769800424575817 0.0 1.0 -2.220446049250313e-16 100.0 50.0 250.0
1.387147206333808 2.0016882902333224 0.45330099761486065 0.0 -2.220446049250313e-16 -1.0 100.0 50.0 250.0
1.0264572235619345 2.2982352858731234 0.5078639984130859 0.0 2.220446049250313e-16 1.0 100.0 50.0 250.0
1.4017372089301863 1.7975262886235202 0.3989119976758958 0.0 -1.0 2.220446049250313e-16 100.0 50.0 250.0
0.8839761945282736 2.194658385435649 0.3703220039606095 1.0 0.0 0.0 100.0 50.0 250.0
1.4278270113145628 2.540429282779404 0.529541015625 0.0 -1.0 2.220446049250313e-16 100.0 50.0 250.0
0.7748481961762228 2.380710277552315 0.22313760221004486 1.0 0.0 0.0 100.0 50.0 250.0
2.257131192353896 2.5158512777039492 0.49530400335788727 -0.7533550262451172 0.65761399269104 -1.460196392002544e-16 100.0 50.0 250.0
2.1397971841370382 1.7433992809006655 0.5330460071563723 0.0 2.220446049250313e-16 1.0 100.0 50.0 250.0
0.8839761945282736 2.5189372783848727 0.14255300164222717 1.0 0.0 0.0 100.0 50.0 250.0
1.3528482052361288 1.8002482837388003 0.45330099761486065 0.0 -2.220446049250313e-16 -1.0 100.0 50.0 250.0
2.000657233861617 2.414065290088364 0.5078639984130859 0.0 2.220446049250313e-16 1.0 100.0 50.0 250.0
1.9901412161862173 1.7975262886235202 0.381673000752926 0.0 -1.0 2.220446049250313e-16 100.0 50.0 250.0
1.6496352138792791 2.6243752723881686 0.5096549987792969 0.0 1.0 -2.220446049250313e-16 100.0 50.0 250.0
2.275622222093276 1.963425282234856 0.5330460071563722 0.0 2.220446049250313e-16 1.0 100.0 50.0 250.0
1.3675582143341818 2.262335385973164 0.45330099761486053 0.0 -2.220446049250313e-16 -1.0 100.0 50.0 250.0
1.7779712113415518 2.553022283906647 0.4211589992046356 0.0 1.0 -2.220446049250313e-16 100.0 50.0 250.0
2.243871185449294 1.8345222955891574 0.28351590409874927 1.0 0.0 0.0 100.0 50.0 250.0
2.041795227197341 2.6130002921769107 0.4533009976148605 0.0 -2.220446049250313e-16 -1.0 100.0 50.0 250.0
0.9792412253891745 2.553022283906647 0.3964800089597702 0.0 1.0 -2.220446049250313e-16 100.0 50.0 250.0
2.1856621834313192 2.553022283906647 0.1469520032405853 0.0 1.0 -2.220446049250313e-16 100.0 50.0 250.0
2.2613061996971884 2.2052860854515517 0.4533009976148606 0.0 -2.220446049250313e-16 -1.0 100.0 50.0 250.0
2.2245661946808615 1.9830722844550097 0.22266850247979175 0.0 0.2425359934568403 -0.9701420068740845 100.0 50.0 250.0
0.9421872231041708 2.41871127843351 0.4190710037946701 0.0 -1.0 2.220446049250313e-16 100.0 50.0 250.0
0.6783122154747763 2.539871293897339 0.5264979898929596 -1.0 0.0 0.0 100.0 50.0 250.0
2.1903851958786764 2.41871127843351 0.07434700429439545 0.0 -1.0 2.220446049250313e-16 100.0 50.0 250.0
2.243871185449294 2.5357622986981356 0.37278400361537933 1.0 0.0 0.0 100.0 50.0 250.0
0.7496652337586203 2.450369287128159 0.3145934045314789 -1.0 0.0 0.0 100.0 50.0 250.0
1.8501572045361319 2.233481585825392 0.5078639984130859 0.0 2.220446049250313e-16 1.0 100.0 50.0 250.0
0.8543752166306295 1.7832812851616824 0.45330099761486065 0.0 -2.220446049250313e-16 -1.0 100.0 50.0 250.0
2.075759205487899 1.9318372791954959 0.39754800498485576 0.0 1.0 -2.220446049250313e-16 100.0 50.0 250.0
1.5607238071834364 2.6243752723881686 0.5014080107212067 0.0 1.0 -2.220446049250313e-16 100.0 50.0 250.0
0.9705512258087912 2.08677738517017 0.45330099761486065 0.0 -2.220446049250313e-16 -1.0 100.0 50.0 250.0
2.0274021956002035 1.7261752968975985 0.4899170100688936 0.0 -1.0 2.220446049250313e-16 100.0 50.0 250.0
0.8839761945282736 1.8181252962300265 0.11740700900554671 1.0 0.0 0.0 100.0 50.0 250.0
2.054783198503188 2.5815312749096835 0.45330099761486053 0.0 -2.220446049250313e-16 -1.0 100.0 50.0 250.0
1.4397152098690786 2.0146482920596087 0.507863998413086 0.0 2.220446049250313e-16 1.0 100.0 50.0 250.0
1.7263472112690725 2.556508291358658 0.45330099761486053 0.0 -2.220446049250313e-16 -1.0 100.0 50.0 250.0
1.4202587115442076 2.251685786838242 0.5078639984130859 0.0 2.220446049250313e-16 1.0 100.0 50.0 250.0
1.8568992051159658 2.553022283906647 0.4465450048446655 0.0 1.0 -2.220446049250313e-16 100.0 50.0 250.0
1.2032842072521963 1.7261752968975985 0.45637300610542314 0.0 -1.0 2.220446049250313e-16 100.0 50.0 250.0
2.1095602246796408 2.238671284014889 0.4452870041131973 -1.0 0.0 0.0 100.0 50.0 250.0
2.284758183625869 2.298113282615849 0.5330460071563721 0.0 2.220446049250313e-16 1.0 100.0 50.0 250.0
2.243871185449294 2.464683282966324 0.06647899746894836 1.0 0.0 0.0 100.0 50.0 250.0
1.3875282066737928 2.553022283906647 0.34158850461244583 0.0 1.0 -2.220446049250313e-16 100.0 50.0 250.0
2.2202192279373922 2.0459922885844195 0.23839870281517514 0.0 0.2425359934568403 -0.9701420068740845 100.0 50.0 250.0
1.692568215993575 2.2847022822448695 0.5078639984130859 0.0 2.220446049250313e-16 1.0 100.0 50.0 250.0
0.8839761945282736 1.846168298120209 0.22677650302648558 1.0 0.0 0.0 100.0 50.0 250.0
2.1935962173020163 2.41871127843351 0.20281240344047546 0.0 -1.0 2.220446049250313e-16 100.0 50.0 250.0
2.237754199174575 2.553022283906647 0.4091150015592575 0.0 1.0 -2.220446049250313e-16 100.0 50.0 250.0
1.525767309111885 1.7261752968975985 0.46606500446796434 0.0 -1.0 2.220446049250313e-16 100.0 50.0 250.0
0.9793141814743795 2.1518398838439667 0.4533009976148606 0.0 -2.220446049250313e-16 -1.0 100.0 50.0 250.0
2.022985193399123 1.7261752968975985 0.49277500808239 0.0 -1.0 2.220446049250313e-16 100.0 50.0 250.0
1.5933621111189642 2.41871127843351 0.3989790081977844 0.0 -1.0 2.220446049250313e-16 100.0 50.0 250.0
2.231281194356612 2.073199283177563 0.5221500098705292 -1.0 0.0 0.0 100.0 50.0 250.0
2.130625221399001 1.9318372791954959 0.027024999260902516 0.0 1.0 -2.220446049250313e-16 100.0 50.0 250.0
1.552276011077098 1.9318372791954959 0.43893800675869 0.0 1.0 -2.220446049250313e-16 100.0 50.0 250.0
0.6934472056900778 1.7533812707612002 0.4712270051240922 0.7071070075035095 0.7071070075035095 7.584220205834711e-09 100.0 50.0 250.0
1.8060122164761343 2.41871127843351 0.34077680110931396 0.0 -1.0 2.220446049250313e-16 100.0 50.0 250.0
2.243871185449294 2.4294192975708926 0.25570760387927294 1.0 0.0 0.0 100.0 50.0 250.0
0.9546811911141195 1.9318372791954959 0.30210790410637867 0.0 1.0 -2.220446049250313e-16 100.0 50.0 250.0
0.6934472056900778 1.7533812707612002 0.4712270051240922 0.7071070075035095 0.7071070075035095 7.584220205834711e-09 100.0 50.0 250.0
0.6786812278305807 1.8055982774445498 0.48277100920677196 -1.0 0.0 0.0 100.0 50.0 250.0
1.3819772112046995 1.7903952783295596 0.45330099761486065 0.0 -2.220446049250313e-16 -1.0 100.0 50.0 250.0
0.8164512249504843 2.5676742976853335 0.526977002620697 1.0 0.0 0.0 100.0 50.0 250.0
1.290923211244277 2.2813822811791384 0.5078639984130859 0.0 2.220446049250313e-16 1.0 100.0 50.0 250.0
2.2129761907135763 1.7975262886235202 0.30026210471987735 0.0 -1.0 2.220446049250313e-16 100.0 50.0 250.0
2.1131152245079794 1.797527272100159 0.3979320079088212 0.0 -1.0 2.220446049250313e-16 100.0 50.0 250.0
2.067278239396743 2.527839291686722 0.28073390386998653 0.0 -1.0 2.220446049250313e-16 100.0 50.0 250.0
0.8400612207924643 1.7261752968975985 0.4665790051221849 0.0 -1.0 2.220446049250313e-16 100.0 50.0 250.0
1.5865625101005354 2.6243752723881686 0.5172730088233948 0.0 1.0 -2.220446049250313e-16 100.0 50.0 250.0
1.0614711972748556 1.7975262886235202 0.27019129367545264 0.0 -1.0 2.220446049250313e-16 100.0 50.0 250.0
1.9166021975552359 2.1425990833291495 0.4533009976148606 0.0 -2.220446049250313e-16 -1.0 100.0 50.0 250.0
0.9278362127816 2.435197282428452 0.45330099761486053 0.0 -2.220446049250313e-16 -1.0 100.0 50.0 250.0
1.853509220746688 2.553022283906647 0.3839710056781769 0.0 1.0 -2.220446049250313e-16 100.0 50.0 250.0
2.231281194356612 1.9686222857186282 0.5178190171718599 -1.0 0.0 0.0 100.0 50.0 250.0
0.8262802096878805 1.9318372791954959 0.28419810347259056 0.0 1.0 -2.220446049250313e-16 100.0 50.0 250.0
0.9003222319161215 1.9519232845255816 0.45330099761486065 0.0 -2.220446049250313e-16 -1.0 100.0 50.0 250.0
0.8943721982514181 2.4191232806393588 0.5078639984130859 0.0 2.220446049250313e-16 1.0 100.0 50.0 250.0
1.6804042043959417 2.070610280925938 0.45330099761486065 0.0 -2.220446049250313e-16 -1.0 100.0 50.0 250.0
2.241718206075362 1.9572872853228533 0.45330099761486065 0.0 -2.220446049250313e-16 -1.0 100.0 50.0 250.0
1.0279752048527517 1.7975262886235202 0.31415560469031345 0.0 -1.0 2.220446049250313e-16 100.0 50.0 250.0
0.8192221852814474 2.2832332810708964 0.29380550421774393 0.0 -2.220446049250313e-16 -1.0 100.0 50.0 250.0
1.0679792198216238 2.1347687838921034 0.5078639984130859 0.0 2.220446049250313e-16 1.0 100.0 50.0 250.0
1.7493022116696157 1.7975262886235202 0.35990530252456676 0.0 -1.0 2.220446049250313e-16 100.0 50.0 250.0
2.2755161854302206 1.9272732919403994 0.5330460071563722 0.0 2.220446049250313e-16 1.0 100.0 50.0 250.0
1.0324262115036764 1.9318372791954959 0.42130500078201305 0.0 1.0 -2.220446049250313e-16 100.0 50.0 250.0
1.282384205130271 2.2997562846490824 0.5078639984130859 0.0 2.220446049250313e-16 1.0 100.0 50.0 250.0
0.7058472367798605 2.338089290852257 0.5330460071563721 0.0 2.220446049250313e-16 1.0 100.0 50.0 250.0
1.8925712141072073 2.593831289405533 0.45330099761486053 0.0 -2.220446049250313e-16 -1.0 100.0 50.0 250.0
0.7841481896912375 1.9226842707344973 0.507863998413086 0.0 2.220446049250313e-16 1.0 100.0 50.0 250.0
1.0000792178189077 1.9318372791954959 0.33025240153074276 0.0 1.0 -2.220446049250313e-16 100.0 50.0 250.0
1.7747622164761343 2.553022283906647 0.34343990683555603 0.0 1.0 -2.220446049250313e-16 100.0 50.0 250.0
1.7140762093340673 2.6243752723881686 0.4694209992885589 0.0 1.0 -2.220446049250313e-16 100.0 50.0 250.0
