ply
format ascii 1.0
element vertex 423
property float x
property float y
property float z
property float nx
property float ny
property float nz
property uchar red
property uchar green
property uchar blue
end_header
-1.0519743944815576 2.110107465215915 0.2943570017814638 -2.787959862970979e-10 0.9239709973335267 0.3824610114097593 100.0 50.0 250.0
-1.62742317759611 2.055457486339801 1.0946570038795473 0.0 1.0 -2.220446049250313e-16 100.0 50.0 250.0
-0.931719790335673 1.9745254651987487 1.1871470212936404 0.0 -1.0 2.220446049250313e-16 100.0 50.0 250.0
-0.5833312078676401 2.248165471979373 0.28621402382850664 0.0 2.220446049250313e-16 1.0 100.0 50.0 250.0
-0.6296911939344584 2.3918058746838504 0.2862140238285066 0.0 2.220446049250313e-16 1.0 100.0 50.0 250.0
-1.6020282014570415 2.055457486339801 1.2217740416526797 0.0 1.0 -2.220446049250313e-16 100.0 50.0 250.0
-0.760728190775889 2.748519463964694 0.30655202269554144 0.0 0.6087800264358523 0.7933390140533446 100.0 50.0 250.0
-1.0210472840181768 2.5516294674360687 1.0789620280265808 0.0 2.220446049250313e-16 1.0 100.0 50.0 250.0
-0.947961795266646 2.744809462257617 0.30599901080131536 0.0 -0.6086559891700747 -0.7934340238571166 100.0 50.0 250.0
-1.377032200928706 1.9745254651987487 1.1637049913406374 0.0 -1.0 2.220446049250313e-16 100.0 50.0 250.0
-0.9635420955083548 2.0873644785368377 1.078962028026581 0.0 2.220446049250313e-16 1.0 100.0 50.0 250.0
-0.5496871873102366 2.4965084777557784 0.2862140238285066 0.0 2.220446049250313e-16 1.0 100.0 50.0 250.0
-0.790277193423289 2.68972246212601 1.0250080227851868 0.0 -2.220446049250313e-16 -1.0 100.0 50.0 250.0
-1.4073512061796367 2.6072414801800186 1.0789620280265808 0.0 2.220446049250313e-16 1.0 100.0 50.0 250.0
-0.5349281831941782 1.9745254651987487 1.2449690103530886 0.0 -1.0 2.220446049250313e-16 100.0 50.0 250.0
-0.4489532216749369 2.756243480869525 0.9083079993724823 0.30219700932502747 0.9532449841499329 -2.1166290590233957e-16 100.0 50.0 250.0
-1.1475751950702846 2.571640475221866 1.0250080227851868 0.0 -2.220446049250313e-16 -1.0 100.0 50.0 250.0
-0.7334571882448374 2.7113514677965576 0.30618500709533697 0.0 -0.6087779998779295 0.7933409810066224 100.0 50.0 250.0
-0.8139621868095576 2.7559614614927703 0.2982010245323181 1.4613399379470593e-10 0.923843026161194 0.3827730119228361 100.0 50.0 250.0
-0.640217195387858 2.064374460407489 1.0797200202941897 0.0 0.31130900979042075 0.9503089785575866 100.0 50.0 250.0
-1.4295731886587322 2.055457486339801 1.2331470251083376 0.0 1.0 -2.220446049250313e-16 100.0 50.0 250.0
-1.4348311825952709 2.5942274765455657 0.28351700305938726 0.0 -2.220446049250313e-16 -1.0 100.0 50.0 250.0
-0.44636417471982826 2.2446274743759567 0.2711820006370546 0.608896017074585 -1.7613688825661612e-16 -0.7932500243186951 100.0 50.0 250.0
-0.8031541957817255 2.2940583736979896 1.0250080227851868 0.0 -2.220446049250313e-16 -1.0 100.0 50.0 250.0
-0.7541391953191935 1.9745254651987487 1.139450013637543 0.0 -1.0 2.220446049250313e-16 100.0 50.0 250.0
-0.7170361980161845 2.450258976348632 0.2862140238285066 0.0 2.220446049250313e-16 1.0 100.0 50.0 250.0
-1.5943662031850994 2.0637684599840576 0.8947810232639315 -0.30219098925590515 -0.9532470107078552 2.116633558885928e-16 100.0 50.0 250.0
-1.495066206093806 2.5233744816267425 0.28351700305938726 0.0 -2.220446049250313e-16 -1.0 100.0 50.0 250.0
-0.997257393907684 2.144504471250766 1.025008022785187 0.0 -2.220446049250313e-16 -1.0 100.0 50.0 250.0
-1.143521192606467 2.424282575526231 0.2862140238285066 0.0 2.220446049250313e-16 1.0 100.0 50.0 250.0
-0.9790724954865156 2.685421480365985 1.0789620280265808 0.0 2.220446049250313e-16 1.0 100.0 50.0 250.0
-1.2701991900167644 2.3912184746348792 0.2862140238285066 0.0 2.220446049250313e-16 1.0 100.0 50.0 250.0
-1.562497208949107 2.743425472208255 0.5111670196056366 0.887703001499176 0.4604170024394989 4.383879902602973e-11 100.0 50.0 250.0
-1.0410695943347394 2.210587470360988 0.2835170030593874 0.0 -2.220446049250313e-16 -1.0 100.0 50.0 250.0
-0.4760332211218058 2.2380694733345443 0.30202400684356706 -0.7934179902076721 -1.9758786636247425e-10 0.6086770296096802 100.0 50.0 250.0
-1.2339901878795803 2.6870674626314575 0.28351700305938726 0.0 -2.220446049250313e-16 -1.0 100.0 50.0 250.0
-1.4813021823129833 2.748832477756732 0.29540601372718817 0.0 0.9239789843559266 0.38244301080703713 100.0 50.0 250.0
-1.1125513940415561 2.2163954810583526 0.28621402382850664 0.0 2.220446049250313e-16 1.0 100.0 50.0 250.0
-1.5253971918783367 2.055457486339801 1.1456720232963564 0.0 1.0 -2.220446049250313e-16 100.0 50.0 250.0
-0.9593674942217051 2.754336460062259 1.0789620280265808 0.0 2.220446049250313e-16 1.0 100.0 50.0 250.0
-1.6171141966543376 2.055457486339801 1.1940129995346072 0.0 1.0 -2.220446049250313e-16 100.0 50.0 250.0
-0.4210041865072428 2.055457486339801 1.109897017478943 0.0 1.0 -2.220446049250313e-16 100.0 50.0 250.0
-1.0283790739550471 2.0963254706346923 0.3097540140151979 0.0 0.3825879991054537 0.9239190220832824 100.0 50.0 250.0
-1.03234466363855 2.4563179747545654 1.0250080227851868 0.0 -2.220446049250313e-16 -1.0 100.0 50.0 250.0
-0.9766329928598582 2.394790474825495 1.0250080227851868 0.0 -2.220446049250313e-16 -1.0 100.0 50.0 250.0
-1.510952185030955 2.3941394747579032 0.2862140238285066 0.0 2.220446049250313e-16 1.0 100.0 50.0 250.0
-0.6402222021780192 2.073095484205478 1.025008022785187 0.0 -2.220446049250313e-16 -1.0 100.0 50.0 250.0
-1.2353891982994258 2.374555604566776 1.0250080227851868 0.0 -2.220446049250313e-16 -1.0 100.0 50.0 250.0
-1.4968451961240947 2.5766664729797775 0.28351700305938726 0.0 -2.220446049250313e-16 -1.0 100.0 50.0 250.0
-1.6133211954794109 2.3332892754459316 1.0789620280265808 0.0 2.220446049250313e-16 1.0 100.0 50.0 250.0
-1.4036891862116039 2.6067044721329147 1.0250080227851868 0.0 -2.220446049250313e-16 -1.0 100.0 50.0 250.0
-0.6969682081899821 2.3047035769903594 1.0789620280265808 0.0 2.220446049250313e-16 1.0 100.0 50.0 250.0
-1.5607211693487346 2.738926483818286 0.9676930010318756 0.9766449928283691 0.2148600071668625 -5.654527630989873e-12 100.0 50.0 250.0
-0.60524020635702 2.600794477888339 0.28351700305938726 0.0 -2.220446049250313e-16 -1.0 100.0 50.0 250.0
-0.4329031809530436 2.0796714858496124 0.6728129126131537 0.9532740116119385 -0.30210599303245544 3.533906616914729e-11 100.0 50.0 250.0
-0.4746412142477213 2.607065467663997 1.0789620280265808 0.0 2.220446049250313e-16 1.0 100.0 50.0 250.0
-1.4296381875238597 2.1723384694540435 1.078962028026581 0.0 2.220446049250313e-16 1.0 100.0 50.0 250.0
-1.5647322043142498 2.71680946511864 0.07219302654266357 0.8427489995956421 -0.5383070111274719 7.945302211864982e-11 100.0 50.0 250.0
-0.7200932010374247 2.7405454651796752 0.3081690073013306 0.0 -0.38267698884010337 -0.9238820075988768 100.0 50.0 250.0
-1.2396581872663677 2.266350476571315 1.0250080227851868 0.0 -2.220446049250313e-16 -1.0 100.0 50.0 250.0
-0.9470048948488413 2.377323484664739 1.0250080227851868 0.0 -2.220446049250313e-16 -1.0 100.0 50.0 250.0
-1.43896720850088 2.40168557552337 1.0789620280265808 0.0 2.220446049250313e-16 1.0 100.0 50.0 250.0
-0.7115571900568186 2.140674470492595 1.078962028026581 0.0 2.220446049250313e-16 1.0 100.0 50.0 250.0
-0.4323821767530619 2.7383924858057433 0.7404658123850822 0.9766449928283691 0.2148600071668625 -5.654527630989873e-12 100.0 50.0 250.0
-1.497796188231486 2.304166576393836 0.2862140238285066 0.0 2.220446049250313e-16 1.0 100.0 50.0 250.0
-1.2396071954927623 2.111994488664859 0.2868010103702547 3.8548698955143124e-11 0.9914060235023499 0.13082499802112557 100.0 50.0 250.0
-1.6302641733846843 2.0122354762041503 1.1737740039825442 -1.0 0.0 0.0 100.0 50.0 250.0
-0.8038582011423289 2.6554354862654144 1.0789620280265808 0.0 2.220446049250313e-16 1.0 100.0 50.0 250.0
-0.8173252000770747 2.0384244756185943 1.025008022785187 0.0 -2.220446049250313e-16 -1.0 100.0 50.0 250.0
-1.423473189707774 2.1090424792253906 0.2885450124740602 1.7447300548756317e-11 -0.9914550185203552 -0.13044500350952126 100.0 50.0 250.0
-0.9397184952459513 2.6502574817621642 0.2862140238285065 0.0 2.220446049250313e-16 1.0 100.0 50.0 250.0
-0.7555711969099222 2.681502474972003 0.2862140238285065 0.0 2.220446049250313e-16 1.0 100.0 50.0 250.0
-1.5621221765241802 2.7427024678671295 0.0689460039138794 0.887703001499176 0.4604170024394989 1.5643789920871622e-10 100.0 50.0 250.0
-1.372209201689738 1.9745254651987487 1.1122920215129855 0.0 -1.0 2.220446049250313e-16 100.0 50.0 250.0
-1.6011791928968608 2.7116914824926788 0.39250101149082184 -0.5385169982910156 -0.842615008354187 1.870981166339074e-16 100.0 50.0 250.0
-0.6764972015581309 2.7074894742453033 1.0250080227851868 0.0 -2.220446049250313e-16 -1.0 100.0 50.0 250.0
-0.987976792391318 2.3960504741752082 0.2862140238285066 0.0 2.220446049250313e-16 1.0 100.0 50.0 250.0
-0.44702220999814857 2.672698481508487 1.0250080227851868 0.0 -2.220446049250313e-16 -1.0 100.0 50.0 250.0
-1.5324542030058086 2.182850478717082 0.2835170030593874 0.0 -2.220446049250313e-16 -1.0 100.0 50.0 250.0
-1.1684921934566677 2.473698271938556 1.0789620280265808 0.0 2.220446049250313e-16 1.0 100.0 50.0 250.0
-1.2058141931257427 2.513208477326625 1.0250080227851868 0.0 -2.220446049250313e-16 -1.0 100.0 50.0 250.0
-0.7548292084894358 2.3064648718917304 0.2862140238285066 0.0 2.220446049250313e-16 1.0 100.0 50.0 250.0
-0.6464781864843546 2.4902604730212623 1.0789620280265808 0.0 2.220446049250313e-16 1.0 100.0 50.0 250.0
-0.9125121935568034 2.5871224687778884 0.2862140238285065 0.0 2.220446049250313e-16 1.0 100.0 50.0 250.0
-1.5680812104902446 2.063464476295703 0.2794060111045839 0.6745539903640747 -0.7382259964942932 1.6391909973696288e-16 100.0 50.0 250.0
-0.9317648961506068 2.344572173931592 0.2862140238285066 0.0 2.220446049250313e-16 1.0 100.0 50.0 250.0
-1.3942732020578563 2.7364984886133605 0.31238201260566717 -7.638040200319551e-11 0.13047400116920493 0.9914519786834717 100.0 50.0 250.0
-0.6328131958208262 2.055457486339801 1.1129470169544222 0.0 1.0 -2.220446049250313e-16 100.0 50.0 250.0
-1.340210179921168 2.1197074787104064 0.28621402382850664 0.0 2.220446049250313e-16 1.0 100.0 50.0 250.0
-0.43390918814756263 2.7208824889147216 0.4807790070772171 0.8426160216331482 -0.5385149717330933 9.505411896814569e-11 100.0 50.0 250.0
-1.5797951921186626 2.062806470819705 0.22402402758598344 0.21485599875450134 -0.9766460061073303 2.1685897657771188e-16 100.0 50.0 250.0
-1.3309922023973644 2.550662471481555 0.28351700305938726 0.0 -2.220446049250313e-16 -1.0 100.0 50.0 250.0
-1.183605189558047 2.501684478052848 1.0250080227851868 0.0 -2.220446049250313e-16 -1.0 100.0 50.0 250.0
-1.3339201911649883 2.694766475387805 1.0250080227851868 0.0 -2.220446049250313e-16 -1.0 100.0 50.0 250.0
-0.8995211973152338 2.1140674786055023 0.28621402382850664 0.0 2.220446049250313e-16 1.0 100.0 50.0 250.0
-1.564280222292918 1.9825974838221012 1.281288027763367 0.0 2.220446049250313e-16 1.0 100.0 50.0 250.0
-1.0410503941885412 2.2719104723417693 1.0250080227851868 0.0 -2.220446049250313e-16 -1.0 100.0 50.0 250.0
-1.3341891869268596 2.105609460302585 0.30206301808357255 1.2359699375075195e-10 0.7932469844818116 0.6089000105857847 100.0 50.0 250.0
-0.6045062049589335 2.6792954639875823 1.0250080227851868 0.0 -2.220446049250313e-16 -1.0 100.0 50.0 250.0
-1.6302641733846843 2.270836471148723 1.0283460021018982 -1.0 0.0 0.0 100.0 50.0 250.0
-1.455153207417506 2.055457486339801 1.1194050014019015 0.0 1.0 -2.220446049250313e-16 100.0 50.0 250.0
-1.6134561999998271 2.6797474758112365 1.0250080227851868 0.0 -2.220446049250313e-16 -1.0 100.0 50.0 250.0
-0.7900211914739786 2.7564234868967468 0.2970860004425049 1.4613399379470593e-10 0.923843026161194 0.3827730119228361 100.0 50.0 250.0
-1.2551271870098293 2.1724584685051376 0.2835170030593874 0.0 -2.220446049250313e-16 -1.0 100.0 50.0 250.0
-0.7573762043676554 2.250037475057834 1.078962028026581 0.0 2.220446049250313e-16 1.0 100.0 50.0 250.0
-0.904152195092219 2.741282476612323 1.0789620280265808 0.0 2.220446049250313e-16 1.0 100.0 50.0 250.0
-0.7902511908970057 2.3207901739859516 1.0789620280265808 0.0 2.220446049250313e-16 1.0 100.0 50.0 250.0
-0.535020182963389 2.5408824817621642 1.0789620280265808 0.0 2.220446049250313e-16 1.0 100.0 50.0 250.0
-1.046237894456762 2.004165484138721 1.281288027763367 0.0 2.220446049250313e-16 1.0 100.0 50.0 250.0
-1.584191213484782 2.757570488878482 0.6979385130107403 0.04493720084428787 0.998989999294281 -2.2182033971735593e-16 100.0 50.0 250.0
-0.49801618897535194 2.446802577503913 1.0250080227851868 0.0 -2.220446049250313e-16 -1.0 100.0 50.0 250.0
-0.5800961955747782 2.6152384714567596 1.0789620280265808 0.0 2.220446049250313e-16 1.0 100.0 50.0 250.0
-0.43074018799878944 2.7183314697229797 0.3020900189876557 0.8425750136375427 -0.5385779738426208 9.210651216346952e-10 100.0 50.0 250.0
-0.5876692041120707 2.546585469075435 0.28351700305938726 0.0 -2.220446049250313e-16 -1.0 100.0 50.0 250.0
-1.6302641733846843 2.574110476800197 1.0687520205974579 -1.0 0.0 0.0 100.0 50.0 250.0
-1.6302641733846843 2.691386474796527 1.0713170170783997 -1.0 0.0 0.0 100.0 50.0 250.0
-0.46412421309568275 2.707338465877765 0.6911391131579876 -0.30219098925590515 -0.9532470107078552 2.116633558885928e-16 100.0 50.0 250.0
-1.3513041838369548 2.581122471519702 1.0250080227851868 0.0 -2.220446049250313e-16 -1.0 100.0 50.0 250.0
-0.8362821891269862 2.683953477569812 1.0250080227851868 0.0 -2.220446049250313e-16 -1.0 100.0 50.0 250.0
-1.56492317759611 2.01910947126984 1.281288027763367 0.0 2.220446049250313e-16 1.0 100.0 50.0 250.0
-1.05064519413926 2.165618477889293 0.2835170030593874 0.0 -2.220446049250313e-16 -1.0 100.0 50.0 250.0
-0.8533231868705927 2.0794884697878295 0.30767801403999345 2.6482200113364662e-11 -0.38253399729728677 0.9239410161972047 100.0 50.0 250.0
-0.5454381808004557 2.0885614888155395 0.31244602799415605 0.0 0.13050599396228812 0.9914469718933105 100.0 50.0 250.0
-0.5722811921796976 2.4624931724154884 0.2835170030593873 0.0 -2.220446049250313e-16 -1.0 100.0 50.0 250.0
-0.9706576942763506 2.39705027503609 0.2862140238285066 0.0 2.220446049250313e-16 1.0 100.0 50.0 250.0
-0.7900892003736674 2.333989875891202 0.2862140238285066 0.0 2.220446049250313e-16 1.0 100.0 50.0 250.0
-0.5884831949434458 2.0662184791052276 0.2936400175094606 3.0469401307575694e-11 -0.9238190054893493 0.382829010486603 100.0 50.0 250.0
-0.44428218447782386 2.7493354813539916 0.023905038833618164 0.5383350253105164 0.8427309989929199 -1.8712387172945986e-16 100.0 50.0 250.0
-1.367858181830424 2.055457486339801 1.1766070127487185 0.0 1.0 -2.220446049250313e-16 100.0 50.0 250.0
-0.44702220999814857 2.672698481508487 1.0250080227851868 0.0 -2.220446049250313e-16 -1.0 100.0 50.0 250.0
-1.0416798937431753 2.569329469033473 1.0789620280265808 0.0 2.220446049250313e-16 1.0 100.0 50.0 250.0
-1.5878892048559368 2.5823914693081313 1.0789620280265808 0.0 2.220446049250313e-16 1.0 100.0 50.0 250.0
-1.3360822006426036 2.742633475490802 0.30730500817298895 0.0 -0.38267698884010337 -0.9238820075988768 100.0 50.0 250.0
-0.9145121976099192 2.2172694788658553 1.025008022785187 0.0 -2.220446049250313e-16 -1.0 100.0 50.0 250.0
-1.327801208134669 2.055457486339801 1.1316320002079012 0.0 1.0 -2.220446049250313e-16 100.0 50.0 250.0
-1.4904871984682262 2.1751394705259735 1.025008022785187 0.0 -2.220446049250313e-16 -1.0 100.0 50.0 250.0
-1.6109501823148906 2.084713472553485 0.4056890159845354 -0.9765719771385193 -0.21518899500370026 4.948744807031669e-11 100.0 50.0 250.0
-1.566567192908305 2.714533461757892 0.8014330118894577 0.6742609739303589 -0.738493025302887 1.6397839204327068e-16 100.0 50.0 250.0
-1.6061881884298503 2.072571469970935 0.6797650121152403 -0.7383599877357483 -0.6744059920310974 1.0180715007823516e-10 100.0 50.0 250.0
-1.3931782051286876 2.245469479390376 0.28621402382850664 0.0 2.220446049250313e-16 1.0 100.0 50.0 250.0
-0.8185811891517817 2.498273475595706 1.0250080227851868 0.0 -2.220446049250313e-16 -1.0 100.0 50.0 250.0
-1.425077180501002 2.3500092742377454 1.0789620280265808 0.0 2.220446049250313e-16 1.0 100.0 50.0 250.0
-0.7490931853017985 2.4380794749939376 1.0250080227851868 0.0 -2.220446049250313e-16 -1.0 100.0 50.0 250.0
-0.9725620924792467 2.055457486339801 1.232785999774933 0.0 1.0 -2.220446049250313e-16 100.0 50.0 250.0
-0.536000202532786 2.7142614857637817 1.0250080227851868 0.0 -2.220446049250313e-16 -1.0 100.0 50.0 250.0
-0.6285121842584788 2.3151771710598403 0.2835170030593873 0.0 -2.220446049250313e-16 -1.0 100.0 50.0 250.0
-1.6056701644621074 2.7394314841711456 0.016984999179840088 -0.9532960057258606 0.30203598737716675 -3.7107307272154774e-10 100.0 50.0 250.0
-0.48436219536878455 2.708004488178485 0.28249901533126837 1.4257499694747544e-11 -0.9914489984512329 -0.13049300014972665 100.0 50.0 250.0
-0.5354691847524821 2.055457486339801 1.1067180037498476 0.0 1.0 -2.220446049250313e-16 100.0 50.0 250.0
-1.4591631993017375 2.4185301759624416 0.2835170030593873 0.0 -2.220446049250313e-16 -1.0 100.0 50.0 250.0
-0.7309881850443064 2.3373143733823234 0.2835170030593873 0.0 -2.220446049250313e-16 -1.0 100.0 50.0 250.0
-0.5987881823740183 2.055457486339801 1.187447011470795 0.0 1.0 -2.220446049250313e-16 100.0 50.0 250.0
-0.7210801943502604 2.350963375099891 1.0250080227851868 0.0 -2.220446049250313e-16 -1.0 100.0 50.0 250.0
-0.5811112030706583 2.189708469935649 0.28621402382850664 0.0 2.220446049250313e-16 1.0 100.0 50.0 250.0
-1.3134221836290538 2.3587038745516473 1.0789620280265808 0.0 2.220446049250313e-16 1.0 100.0 50.0 250.0
-1.235762189265269 2.2537274794065887 1.078962028026581 0.0 2.220446049250313e-16 1.0 100.0 50.0 250.0
-0.43398518406965125 2.742864473291629 0.8162420094013214 0.8875870108604431 0.460640013217926 1.3821589192275203e-10 100.0 50.0 250.0
-1.3666491910181224 2.1020854846918517 1.025008022785187 0.0 -2.220446049250313e-16 -1.0 100.0 50.0 250.0
-1.1577611967287242 2.7172874645674163 0.2695280015468598 0.0 -0.6088939905166628 -0.7932519912719725 100.0 50.0 250.0
-0.8797142013273417 2.5371954725468093 0.28351700305938726 0.0 -2.220446049250313e-16 -1.0 100.0 50.0 250.0
-0.5004052027425944 2.1087134615862304 1.078962028026581 0.0 2.220446049250313e-16 1.0 100.0 50.0 250.0
-1.512734185095805 2.504028475412124 0.2862140238285066 0.0 2.220446049250313e-16 1.0 100.0 50.0 250.0
-1.6100121840200603 2.724666459985965 0.1297360062599182 -0.9765849709510803 -0.2151300013065338 1.992450432708462e-10 100.0 50.0 250.0
-0.9863002925477206 2.3074926720344955 0.2862140238285066 0.0 2.220446049250313e-16 1.0 100.0 50.0 250.0
-0.6106851800642191 2.6588584618055755 0.28351700305938726 0.0 -2.220446049250313e-16 -1.0 100.0 50.0 250.0
-0.4827221735677897 2.734097464510196 0.4556260108947754 -0.998989999294281 0.04493299871683121 1.2724689788967965e-11 100.0 50.0 250.0
-0.6339652045927225 2.6290734694683486 0.2862140238285065 0.0 2.220446049250313e-16 1.0 100.0 50.0 250.0
-0.7108281954488932 2.007971479126209 1.281288027763367 0.0 2.220446049250313e-16 1.0 100.0 50.0 250.0
-0.900783191557902 2.5273494706833297 1.0250080227851868 0.0 -2.220446049250313e-16 -1.0 100.0 50.0 250.0
-1.0947132959327877 1.9745254651987487 1.1823819875717165 0.0 -1.0 2.220446049250313e-16 100.0 50.0 250.0
-1.273404191370982 2.5063094781124526 1.0250080227851868 0.0 -2.220446049250313e-16 -1.0 100.0 50.0 250.0
-1.6158222063741863 2.6779914633715087 1.0250080227851868 0.0 -2.220446049250313e-16 -1.0 100.0 50.0 250.0
-0.8825442000589548 2.7036414877855712 0.296398013830185 2.4999999292951713e-10 -0.923883020877838 0.3826749920845034 100.0 50.0 250.0
-0.4569072231016337 1.9830914871179997 1.281288027763367 0.0 2.220446049250313e-16 1.0 100.0 50.0 250.0
-0.7168691858015238 1.9745254651987487 1.1504760384559634 0.0 -1.0 2.220446049250313e-16 100.0 50.0 250.0
-1.6144511803350627 1.9745254651987487 1.2211260199546816 0.0 -1.0 2.220446049250313e-16 100.0 50.0 250.0
-1.1084681927523792 2.6741354600870544 0.2862140238285065 0.0 2.220446049250313e-16 1.0 100.0 50.0 250.0
-1.3071982070169628 2.6392604844057495 1.0789620280265808 0.0 2.220446049250313e-16 1.0 100.0 50.0 250.0
-0.4504531725607096 2.7567194835627014 0.9284250140190125 0.30219700932502747 0.9532449841499329 -2.1166290590233957e-16 100.0 50.0 250.0
-0.4728582009039103 2.1130534843885833 0.26145499944686906 -0.4603019952774048 0.8877620100975037 -1.9712276479955186e-16 100.0 50.0 250.0
-0.7914351924619852 2.433462976046794 0.2835170030593873 0.0 -2.220446049250313e-16 -1.0 100.0 50.0 250.0
-1.390434186097163 2.065952463575595 0.29265201091766374 3.215469904227497e-11 -0.9914789795875549 0.1302669942379 100.0 50.0 250.0
-0.8625192000827967 2.6507064835512573 1.0250080227851868 0.0 -2.220446049250313e-16 -1.0 100.0 50.0 250.0
-0.7467061980924784 2.7498454884970123 0.28260999917984014 -8.666280366942392e-12 0.991428017616272 -0.1306540071964266 100.0 50.0 250.0
-1.1513472005090892 2.066481484600299 0.29427400231361406 3.0469401307575694e-11 -0.9238190054893493 0.382829010486603 100.0 50.0 250.0
-0.9243837922177492 2.289085975416892 0.2862140238285066 0.0 2.220446049250313e-16 1.0 100.0 50.0 250.0
-1.4924541815481365 2.055457486339801 1.1489869952201845 0.0 1.0 -2.220446049250313e-16 100.0 50.0 250.0
-0.8123901888094126 2.759532465168231 1.0786100029945374 0.0 0.13041800260543845 0.9914590120315552 100.0 50.0 250.0
-1.0417825944087684 2.7482214705431396 1.0789620280265808 0.0 2.220446049250313e-16 1.0 100.0 50.0 250.0
-0.4708141788206278 2.753770484157794 0.7815890163183212 -0.46064600348472595 0.8875839710235596 -1.9708323218371672e-16 100.0 50.0 250.0
-0.4389361842832743 2.5474604801618987 0.2847780287265778 0.9914270043373108 -1.0855729031810638e-11 -0.13065999746322632 100.0 50.0 250.0
-0.9921527943871199 2.5408064709389144 0.28351700305938726 0.0 -2.220446049250313e-16 -1.0 100.0 50.0 250.0
-0.5995811923704325 2.7448344664061004 1.0789620280265808 0.0 2.220446049250313e-16 1.0 100.0 50.0 250.0
-0.6049781843385874 2.446657276281112 1.0789620280265808 0.0 2.220446049250313e-16 1.0 100.0 50.0 250.0
-1.2724201931915462 2.3082896755421096 1.0789620280265808 0.0 2.220446049250313e-16 1.0 100.0 50.0 250.0
-1.3313441976270854 2.402825974428051 1.0789620280265808 0.0 2.220446049250313e-16 1.0 100.0 50.0 250.0
-1.6302641733846843 2.554491473861926 1.060476005077362 -1.0 0.0 0.0 100.0 50.0 250.0
-0.6872481807432352 2.6552404598677093 0.28351700305938726 0.0 -2.220446049250313e-16 -1.0 100.0 50.0 250.0
-1.0240991369419947 2.4281021752738887 0.2835170030593873 0.0 -2.220446049250313e-16 -1.0 100.0 50.0 250.0
-0.8403411909303843 1.9745254651987487 1.1609470248222353 0.0 -1.0 2.220446049250313e-16 100.0 50.0 250.0
-0.8971251949033915 2.055457486339801 1.1774840354919436 0.0 1.0 -2.220446049250313e-16 100.0 50.0 250.0
-0.5961071952543436 2.6115354732954437 0.2862140238285065 0.0 2.220446049250313e-16 1.0 100.0 50.0 250.0
-0.4318772062025248 2.082911475130313 0.8845780193805697 0.9532740116119385 -0.30210599303245544 3.533906616914729e-11 100.0 50.0 250.0
-1.5848451956472576 2.055457486339801 1.1434220075607302 0.0 1.0 -2.220446049250313e-16 100.0 50.0 250.0
-0.45607919537641395 2.017095460125202 1.281288027763367 0.0 2.220446049250313e-16 1.0 100.0 50.0 250.0
-0.4873941644392191 2.6708594696009094 1.0789620280265808 0.0 2.220446049250313e-16 1.0 100.0 50.0 250.0
-1.0715223952493846 2.240600480266803 1.078962028026581 0.0 2.220446049250313e-16 1.0 100.0 50.0 250.0
-0.5354781850538431 2.4772515730345184 0.2862140238285066 0.0 2.220446049250313e-16 1.0 100.0 50.0 250.0
-1.3050761922559917 2.5408444688999587 1.0789620280265808 0.0 2.220446049250313e-16 1.0 100.0 50.0 250.0
-1.4964372023306072 2.392081674688452 0.2835170030593873 0.0 -2.220446049250313e-16 -1.0 100.0 50.0 250.0
-0.43275822245694984 2.7401024834597045 1.0066330134868622 0.9766449928283691 0.2148600071668625 -5.654527630989873e-12 100.0 50.0 250.0
-1.0098482939711988 2.6430804864847595 0.2862140238285065 0.0 2.220446049250313e-16 1.0 100.0 50.0 250.0
-1.1193055912218273 2.6408584849321777 1.0250080227851868 0.0 -2.220446049250313e-16 -1.0 100.0 50.0 250.0
-0.9516671925149142 2.782452477642291 1.0600870251655579 3.818869873106756e-11 0.9238830208778382 0.38267600536346413 100.0 50.0 250.0
-1.3178871973715007 2.7283264831983978 1.0789620280265808 0.0 2.220446049250313e-16 1.0 100.0 50.0 250.0
-1.4301771923265636 2.3439281755471164 1.0789620280265808 0.0 2.220446049250313e-16 1.0 100.0 50.0 250.0
-1.6109051808080852 2.605723469086879 0.28096401691436773 -0.9238190054893494 -1.0592208534254921e-10 -0.3828290104866028 100.0 50.0 250.0
-1.6213141783437908 2.4619592712604934 1.0250080227851868 0.0 -2.220446049250313e-16 -1.0 100.0 50.0 250.0
-1.5852722033224285 2.757618470617526 0.7220605164766312 0.04493720084428787 0.998989999294281 -2.2182033971735593e-16 100.0 50.0 250.0
-0.4325361951551615 2.071312470861667 0.2635260224342348 0.8425750136375427 -0.5385779738426208 9.210651216346952e-10 100.0 50.0 250.0
-1.2684181883297145 2.6350814835512573 0.28351700305938726 0.0 -2.220446049250313e-16 -1.0 100.0 50.0 250.0
-0.7694761856756388 2.699855460354083 1.0789620280265808 0.0 2.220446049250313e-16 1.0 100.0 50.0 250.0
-1.1759781941137493 2.650118483730548 0.2862140238285065 0.0 2.220446049250313e-16 1.0 100.0 50.0 250.0
-0.4323971971235453 2.094249470659488 0.17178100347518938 0.9766319990158081 0.21491999924182892 1.9174394795928879e-10 100.0 50.0 250.0
-0.43266321265317786 2.0954584614717895 0.43108601868152635 0.9766319990158081 0.21491999924182892 5.3732651124072274e-11 100.0 50.0 250.0
-1.0746721952519596 2.5286624716007644 1.0250080227851868 0.0 -2.220446049250313e-16 -1.0 100.0 50.0 250.0
-0.559951196547526 2.6504514650785858 0.2862140238285065 0.0 2.220446049250313e-16 1.0 100.0 50.0 250.0
-0.7442022069654642 2.055457486339801 1.192960023880005 0.0 1.0 -2.220446049250313e-16 100.0 50.0 250.0
-0.7111981912813364 2.0192304686987335 1.025008022785187 0.0 -2.220446049250313e-16 -1.0 100.0 50.0 250.0
-1.3777622088155925 2.0761284665548736 1.025008022785187 0.0 -2.220446049250313e-16 -1.0 100.0 50.0 250.0
-0.6032571896276652 2.1889334754431182 0.28621402382850664 0.0 2.220446049250313e-16 1.0 100.0 50.0 250.0
-1.6302641733846843 2.358795974903696 1.0458780229091644 -1.0 0.0 0.0 100.0 50.0 250.0
-0.9930640935263811 2.6083344803535873 0.28351700305938726 0.0 -2.220446049250313e-16 -1.0 100.0 50.0 250.0
-0.8561671926937281 2.5079974816524917 1.0789620280265808 0.0 2.220446049250313e-16 1.0 100.0 50.0 250.0
-1.5634101732931316 2.0746674673044616 0.7244035154581072 0.8426650166511536 -0.5384380221366882 1.2796811686711032e-10 100.0 50.0 250.0
-0.4673602088651835 2.755562468000644 0.06856799125671387 -0.46064600348472595 0.8875839710235596 -1.9708323218371672e-16 100.0 50.0 250.0
-0.4539001687727152 2.113266481586688 0.6321137435734274 0.04493720084428787 0.998989999294281 -2.2182033971735593e-16 100.0 50.0 250.0
-1.2824841841421306 2.384971234516197 1.0250080227851868 0.0 -2.220446049250313e-16 -1.0 100.0 50.0 250.0
-1.559756170149821 2.088390483089679 0.8978220224380495 0.998989999294281 -0.0449414998292923 2.1207898762004194e-12 100.0 50.0 250.0
-1.6302641733846843 2.3411024758005077 1.0453720092773438 -1.0 0.0 0.0 100.0 50.0 250.0
-1.053684794466871 2.7791524664843017 1.0371020138263702 2.507070072377271e-11 0.7932999730110167 -0.608829975128174 100.0 50.0 250.0
-0.4441151722631632 2.709937466808551 0.893964022397995 0.46064600348472595 -0.8875839710235596 1.9708323218371672e-16 100.0 50.0 250.0
-0.6114011808595835 2.055457486339801 1.09594801068306 0.0 1.0 -2.220446049250313e-16 100.0 50.0 250.0
-0.45934719884015907 2.4511040733539993 1.0789620280265808 0.0 2.220446049250313e-16 1.0 100.0 50.0 250.0
-1.3903741940221965 2.055457486339801 1.1192640066146853 0.0 1.0 -2.220446049250313e-16 100.0 50.0 250.0
-0.41630221449949134 2.1314034746372634 1.0565870106220248 1.0 0.0 0.0 100.0 50.0 250.0
-1.249247188802737 2.0796664790594512 1.025008022785187 0.0 -2.220446049250313e-16 -1.0 100.0 50.0 250.0
-1.6080061897001445 2.451073578127616 1.0789620280265808 0.0 2.220446049250313e-16 1.0 100.0 50.0 250.0
-1.6302641733846843 2.352144474663728 1.0359600186347961 -1.0 0.0 0.0 100.0 50.0 250.0
-0.4949061974249064 2.6873854832136566 1.0789620280265808 0.0 2.220446049250313e-16 1.0 100.0 50.0 250.0
-1.3170621796808422 2.6362564699137145 1.0789620280265808 0.0 2.220446049250313e-16 1.0 100.0 50.0 250.0
-0.539742182131785 2.2337974743330413 0.2835170030593874 0.0 -2.220446049250313e-16 -1.0 100.0 50.0 250.0
-1.5812051995954692 2.1132254735910827 0.6864708140492441 0.04493720084428787 0.998989999294281 -2.2182033971735593e-16 100.0 50.0 250.0
-0.8883161946497141 2.665543480345004 0.28351700305938726 0.0 -2.220446049250313e-16 -1.0 100.0 50.0 250.0
-1.4863651796541393 2.5478964732372695 1.0789620280265808 0.0 2.220446049250313e-16 1.0 100.0 50.0 250.0
-0.4801882013044535 2.5067634717905456 0.2951080203056336 -0.9239389896392822 -1.1148491684509396e-10 0.3825390040874481 100.0 50.0 250.0
-1.5866311892233074 2.062213464208835 0.2130690217018129 -0.04522420093417168 -0.99897700548172 2.2181745451137935e-16 100.0 50.0 250.0
-0.44643421017743934 2.0645224885427886 0.7888810187578204 0.46064600348472595 -0.8875839710235596 1.9708323218371672e-16 100.0 50.0 250.0
-0.8159521921835123 2.055457486339801 1.2614099979400637 0.0 1.0 -2.220446049250313e-16 100.0 50.0 250.0
-1.0150823138020217 1.9745254651987487 1.1768060326576235 0.0 -1.0 2.220446049250313e-16 100.0 50.0 250.0
-1.2392031952104747 2.097642465063327 1.078962028026581 0.0 2.220446049250313e-16 1.0 100.0 50.0 250.0
-1.3714611932001293 2.648426486679309 0.28351700305938726 0.0 -2.220446049250313e-16 -1.0 100.0 50.0 250.0
-1.1592711909971416 2.6041834787809783 1.0250080227851868 0.0 -2.220446049250313e-16 -1.0 100.0 50.0 250.0
-0.6624621852598368 2.1805694685661727 1.025008022785187 0.0 -2.220446049250313e-16 -1.0 100.0 50.0 250.0
-0.4681412085256754 2.7551574842417175 0.9574630260467529 -0.46064600348472595 0.8875839710235596 -1.9708323218371672e-16 100.0 50.0 250.0
-0.8019271894655405 2.6835964755499297 0.28351700305938726 0.0 -2.220446049250313e-16 -1.0 100.0 50.0 250.0
-1.2679181947670162 2.329626473166936 0.2835170030593873 0.0 -2.220446049250313e-16 -1.0 100.0 50.0 250.0
-0.45145816647626746 2.16679146749615 0.2680130004882814 0.3828270137310028 -2.0512925108924452e-16 -0.9238200187683105 100.0 50.0 250.0
-0.4809792145452677 2.4557567746722633 0.29319900274276745 -0.9239389896392822 -1.1148491684509396e-10 0.3825390040874481 100.0 50.0 250.0
-1.5632252200803936 2.1006184653723174 1.0121230185031893 0.8877630233764648 0.460301011800766 3.534499616852664e-11 100.0 50.0 250.0
-0.638182203408259 2.246218471356624 0.2835170030593874 0.0 -2.220446049250313e-16 -1.0 100.0 50.0 250.0
-0.8920232012233912 1.9745254651987487 1.2535279989242556 0.0 -1.0 2.220446049250313e-16 100.0 50.0 250.0
-0.4763372048101603 2.7491804794752532 0.407804012298584 -0.6744040250778198 0.7383630275726318 -1.6394952674861503e-16 100.0 50.0 250.0
-1.6302641733846843 2.643288476892703 1.069419026374817 -1.0 0.0 0.0 100.0 50.0 250.0
-0.4784271820745646 2.102094484993213 0.6502323839813473 -0.8425329923629761 0.5386450290679932 -7.98789176237389e-11 100.0 50.0 250.0
-1.24239119433977 1.9745254651987487 1.0998170077800753 0.0 -1.0 2.220446049250313e-16 100.0 50.0 250.0
-1.6302641733846843 2.6750204698526794 1.026256024837494 -1.0 0.0 0.0 100.0 50.0 250.0
-0.9790724954865156 2.685421480365985 1.0789620280265808 0.0 2.220446049250313e-16 1.0 100.0 50.0 250.0
-1.5921341880521953 2.206133468576663 0.26620900630950944 -0.1302649974822998 -2.2015255831399182e-16 -0.9914789795875549 100.0 50.0 250.0
-0.9934006939939438 2.3054686771118575 1.0789620280265808 0.0 2.220446049250313e-16 1.0 100.0 50.0 250.0
-0.9274183913431345 2.6816524700605804 0.2862140238285065 0.0 2.220446049250313e-16 1.0 100.0 50.0 250.0
-0.46198917471982826 2.062451465555423 0.24648401141166704 -0.30219098925590515 -0.9532470107078552 2.116633558885928e-16 100.0 50.0 250.0
-1.6135531767568767 2.4265299761080676 1.0789620280265808 0.0 2.220446049250313e-16 1.0 100.0 50.0 250.0
-1.443933199282664 2.0717674629175598 1.025008022785187 0.0 -2.220446049250313e-16 -1.0 100.0 50.0 250.0
-1.5448311670980632 1.9745254651987487 1.1991950273513796 0.0 -1.0 2.220446049250313e-16 100.0 50.0 250.0
-1.080152395304221 2.040833486744159 1.025008022785187 0.0 -2.220446049250313e-16 -1.0 100.0 50.0 250.0
-0.5673831804952799 1.9745254651987487 1.2428169846534731 0.0 -1.0 2.220446049250313e-16 100.0 50.0 250.0
-0.5236162050924479 2.553555472322696 1.0789620280265808 0.0 2.220446049250313e-16 1.0 100.0 50.0 250.0
-1.4629781945905864 2.6454674736940795 1.0250080227851868 0.0 -2.220446049250313e-16 -1.0 100.0 50.0 250.0
-1.0224649899238005 2.500997474917167 0.2862140238285066 0.0 2.220446049250313e-16 1.0 100.0 50.0 250.0
-0.6631421848497568 2.753770484157794 0.2964430153369904 6.067660263120445e-11 -0.9237419962882997 -0.38301599025726296 100.0 50.0 250.0
-0.9991584933660208 2.5506894723856384 1.0789620280265808 0.0 2.220446049250313e-16 1.0 100.0 50.0 250.0
-1.2699691905937374 2.4880864755594665 1.0789620280265808 0.0 2.220446049250313e-16 1.0 100.0 50.0 250.0
-0.8825442000589548 2.7036414877855712 0.296398013830185 2.4999999292951713e-10 -0.923883020877838 0.3826749920845034 100.0 50.0 250.0
-1.5790901883802593 2.7071734802210266 0.7078073173761368 0.21485599875450134 -0.9766460061073303 2.1685897657771188e-16 100.0 50.0 250.0
-0.9042761951050936 2.486141471692317 1.0250080227851868 0.0 -2.220446049250313e-16 -1.0 100.0 50.0 250.0
-1.318924198981303 2.1614474789583618 1.078962028026581 0.0 2.220446049250313e-16 1.0 100.0 50.0 250.0
-1.466550181742686 2.2948206724011833 0.2835170030593873 0.0 -2.220446049250313e-16 -1.0 100.0 50.0 250.0
-1.164146195288676 2.0782354609453613 0.30990099906921403 0.0 0.13071900606155373 -0.9914190173149109 100.0 50.0 250.0
-1.3780251845083415 2.497974476345771 1.0250080227851868 0.0 -2.220446049250313e-16 -1.0 100.0 50.0 250.0
-0.5958661838731943 2.4361493760132724 0.2835170030593873 0.0 -2.220446049250313e-16 -1.0 100.0 50.0 250.0
-0.6004341944418131 2.1101594702684814 0.2942320108413698 -2.787959862970979e-10 0.9239709973335267 0.3824610114097593 100.0 50.0 250.0
-1.0240959079302132 2.2841368751013214 0.2862140238285066 0.0 2.220446049250313e-16 1.0 100.0 50.0 250.0
-0.6225111886224924 2.4473722712480956 0.2835170030593873 0.0 -2.220446049250313e-16 -1.0 100.0 50.0 250.0
-0.6239532037935435 2.518621473141902 1.0250080227851868 0.0 -2.220446049250313e-16 -1.0 100.0 50.0 250.0
-0.5714041992387949 2.044196470209354 1.281288027763367 0.0 2.220446049250313e-16 1.0 100.0 50.0 250.0
-0.7371701999864756 1.9745254651987487 1.0650530159473421 0.0 -1.0 2.220446049250313e-16 100.0 50.0 250.0
-0.6965572043619334 2.1471454785549575 0.2835170030593874 0.0 -2.220446049250313e-16 -1.0 100.0 50.0 250.0
-0.9089101954660593 2.4559818716132575 0.2862140238285066 0.0 2.220446049250313e-16 1.0 100.0 50.0 250.0
-0.6635661824903666 2.3347001732671195 1.0250080227851868 0.0 -2.220446049250313e-16 -1.0 100.0 50.0 250.0
-1.1764821960888088 2.127843482919925 0.28621402382850664 0.0 2.220446049250313e-16 1.0 100.0 50.0 250.0
-1.2227621927223384 2.710167481132739 0.2769280076026917 1.797079960397241e-07 -0.9239410161972047 -0.38253501057624795 100.0 50.0 250.0
-1.4272281929216564 2.3678737744101817 1.0250080227851868 0.0 -2.220446049250313e-16 -1.0 100.0 50.0 250.0
-1.065531893756169 1.9794764654123718 1.025008022785187 0.0 -2.220446049250313e-16 -1.0 100.0 50.0 250.0
-0.8292801930866419 2.1475034789526397 1.078962028026581 0.0 2.220446049250313e-16 1.0 100.0 50.0 250.0
-1.6133121951780498 2.055457486339801 1.1351779997348788 0.0 1.0 -2.220446049250313e-16 100.0 50.0 250.0
-0.9444320976100146 2.1921034739696914 1.025008022785187 0.0 -2.220446049250313e-16 -1.0 100.0 50.0 250.0
-1.3254861935339153 2.0532904700720245 1.025008022785187 0.0 -2.220446049250313e-16 -1.0 100.0 50.0 250.0
-1.6110912069044292 2.730856461950534 0.5095270127058029 -0.99897700548172 0.04522420093417168 1.4138389610629313e-11 100.0 50.0 250.0
-1.371076206799525 2.562560467549556 0.28351700305938726 0.0 -2.220446049250313e-16 -1.0 100.0 50.0 250.0
-1.1567911907396495 2.055457486339801 1.1008509993553164 0.0 1.0 -2.220446049250313e-16 100.0 50.0 250.0
-0.7071401878557383 1.9745254651987492 1.2711610198020937 0.0 -1.0 2.220446049250313e-16 100.0 50.0 250.0
-0.473953197833079 2.1071464852774078 0.5701017156243327 -0.6745629906654358 0.7382169961929321 -1.6391710126860296e-16 100.0 50.0 250.0
-1.560313175555247 2.7370744780981475 0.5414277166128159 0.9766449928283691 0.2148600071668625 -5.654527630989873e-12 100.0 50.0 250.0
-1.3344012006483257 1.9745254651987487 1.0663070082664492 0.0 -1.0 2.220446049250313e-16 100.0 50.0 250.0
-1.4249791904649913 2.7011414603674346 1.0789620280265808 0.0 2.220446049250313e-16 1.0 100.0 50.0 250.0
-0.5568011804781138 1.9745254651987487 1.1219600141048434 0.0 -1.0 2.220446049250313e-16 100.0 50.0 250.0
-0.43882120692350257 2.055457486339801 1.242881000041962 0.0 1.0 -2.220446049250313e-16 100.0 50.0 250.0
-0.9238394975028216 2.527053474017375 1.0250080227851868 0.0 -2.220446049250313e-16 -1.0 100.0 50.0 250.0
-0.47534717166044105 2.743619485326999 0.04246300458908081 -0.8427339792251587 0.5383309721946716 -3.233330167680342e-09 100.0 50.0 250.0
-1.1927791937551677 2.505581481882327 1.0789620280265808 0.0 2.220446049250313e-16 1.0 100.0 50.0 250.0
-1.5831391915044963 2.055457486339801 1.204782009124756 0.0 1.0 -2.220446049250313e-16 100.0 50.0 250.0
-1.5967781647405803 2.0646684603178436 0.37856602668762224 -0.5383120179176331 -0.8427450060844421 1.8712698192856306e-16 100.0 50.0 250.0
-1.617409180041331 2.1662494675600463 1.078962028026581 0.0 2.220446049250313e-16 1.0 100.0 50.0 250.0
-1.1060154914221942 2.3618214750075275 1.0789620280265808 0.0 2.220446049250313e-16 1.0 100.0 50.0 250.0
-1.5314211949072063 2.116876466699832 1.025008022785187 0.0 -2.220446049250313e-16 -1.0 100.0 50.0 250.0
-0.6782941921911417 2.2880708710634643 1.0250080227851868 0.0 -2.220446049250313e-16 -1.0 100.0 50.0 250.0
-1.019570903975445 2.4233034761035377 0.2862140238285066 0.0 2.220446049250313e-16 1.0 100.0 50.0 250.0
-1.5738031967840374 2.614833472796672 0.2741640210151673 0.7932900190353394 -1.1325613698943216e-10 -0.6088430285453796 100.0 50.0 250.0
-0.5008971794805704 2.070113463827365 0.30089002847671525 -4.3048401648926315e-11 -0.7934150099754332 0.6086810231208803 100.0 50.0 250.0
-1.0924870922527492 2.0016154782259403 1.281288027763367 0.0 2.220446049250313e-16 1.0 100.0 50.0 250.0
-1.4809721811971843 2.001395477482074 1.025008022785187 0.0 -2.220446049250313e-16 -1.0 100.0 50.0 250.0
-0.9581800951919733 2.404615274199241 1.0250080227851868 0.0 -2.220446049250313e-16 -1.0 100.0 50.0 250.0
-0.6935321792326151 2.4272194751882488 0.2835170030593873 0.0 -2.220446049250313e-16 -1.0 100.0 50.0 250.0
-1.0205292740202725 2.7415804700338775 0.270321011543274 1.0795299658639124e-06 0.6092259883880613 -0.7929970026016236 100.0 50.0 250.0
-1.1528971894941509 2.130235476919406 1.025008022785187 0.0 -2.220446049250313e-16 -1.0 100.0 50.0 250.0
-1.024200989929422 2.1130384640181 1.025008022785187 0.0 -2.220446049250313e-16 -1.0 100.0 50.0 250.0
-0.44974220835782874 2.055457486339801 1.1107720136642458 0.0 1.0 -2.220446049250313e-16 100.0 50.0 250.0
-1.0487216945103586 2.2720264778816635 0.2862140238285066 0.0 2.220446049250313e-16 1.0 100.0 50.0 250.0
-1.013814234297651 2.4448285759770805 1.0250080227851868 0.0 -2.220446049250313e-16 -1.0 100.0 50.0 250.0
-1.2018431975803554 2.482792472966903 1.0789620280265808 0.0 2.220446049250313e-16 1.0 100.0 50.0 250.0
-0.4441101654730021 2.1098114685499603 0.17445501685142534 0.5385130047798157 0.8426169753074646 -1.8709855338527084e-16 100.0 50.0 250.0
-1.089408296283263 2.055457486339801 1.21951699256897 0.0 1.0 -2.220446049250313e-16 100.0 50.0 250.0
-0.47233517014600623 2.231397478409999 0.30519500374794023 -0.6086789965629578 1.761739591829483e-16 0.7934169769287109 100.0 50.0 250.0
-1.5227792068681896 2.10293046993851 0.27336102724075334 4.282329882698832e-06 0.7926250100135802 -0.6097099781036379 100.0 50.0 250.0
-0.8790521874389826 2.433946474024051 1.0250080227851868 0.0 -2.220446049250313e-16 -1.0 100.0 50.0 250.0
-1.2024021997413814 2.7479764656507903 0.2974750101566315 0.0 0.9239789843559266 0.38244301080703713 100.0 50.0 250.0
-1.2786601885519207 2.0712824599230224 0.2727349996566774 -7.815730214133509e-07 -0.7932909727096559 -0.6088430285453794 100.0 50.0 250.0
-0.7315921887121378 2.315213872619861 0.2835170030593873 0.0 -2.220446049250313e-16 -1.0 100.0 50.0 250.0
-1.590273211833018 2.7109224633657867 0.0384330153465271 -0.3020319938659668 -0.9532979726791382 2.1167467171937253e-16 100.0 50.0 250.0
-0.8764391943178355 2.409185475238555 0.2835170030593873 0.0 -2.220446049250313e-16 -1.0 100.0 50.0 250.0
-1.0765917926392734 2.661380483337634 1.0789620280265808 0.0 2.220446049250313e-16 1.0 100.0 50.0 250.0
-0.5749262078962504 2.055457486339801 1.108004003763199 0.0 1.0 -2.220446049250313e-16 100.0 50.0 250.0
-0.435154209967631 2.751829488703006 0.2921020090579987 0.7383509874343872 0.6744170188903809 5.897548728446236e-10 100.0 50.0 250.0
-1.571181188460368 2.109076483675235 0.5037000179290774 0.5386450290679932 0.8425329923629761 -1.8707990542554144e-16 100.0 50.0 250.0
-0.47839821421720374 2.7172864810907775 0.4341450184583664 -0.8875859975814819 -0.460642009973526 -4.948827871495981e-12 100.0 50.0 250.0
-1.5105131968221843 2.0589194731199676 0.29592701792716997 1.0284500334689639e-10 0.9239760041236876 -0.3824509978294375 100.0 50.0 250.0
-0.4803041919431864 2.720959468313449 0.7960040122270584 -0.8875859975814819 -0.460642009973526 -4.948827871495981e-12 100.0 50.0 250.0
-0.6643501921854197 2.0980294780218536 1.025008022785187 0.0 -2.220446049250313e-16 -1.0 100.0 50.0 250.0
-1.0087368936575234 2.055457486339801 1.2293869853019717 0.0 1.0 -2.220446049250313e-16 100.0 50.0 250.0
-0.46029521071531165 2.7575274841272766 0.7584110125899315 -0.2148600071668625 0.9766449928283691 -2.1685875158458526e-16 100.0 50.0 250.0
-0.5501321955881296 2.1924734698021346 0.28621402382850664 0.0 2.220446049250313e-16 1.0 100.0 50.0 250.0
-1.5913491948805034 2.0674264864408904 0.001358032226562722 -0.2788180112838745 -0.8804469704627992 -0.3835009932518003 100.0 50.0 250.0
-1.3431311949453533 2.1548194722616607 1.078962028026581 0.0 2.220446049250313e-16 1.0 100.0 50.0 250.0
-1.4331241949758708 2.7266204790556365 1.0250080227851868 0.0 -2.220446049250313e-16 -1.0 100.0 50.0 250.0
-0.6810332044325053 2.1942724720919067 1.025008022785187 0.0 -2.220446049250313e-16 -1.0 100.0 50.0 250.0
-1.0877932935319126 2.602689473458522 1.0250080227851868 0.0 -2.220446049250313e-16 -1.0 100.0 50.0 250.0
-0.5816232069692789 2.400217574589842 0.2835170030593873 0.0 -2.220446049250313e-16 -1.0 100.0 50.0 250.0
-1.6217752202711284 2.5536114708864623 1.0250080227851868 0.0 -2.220446049250313e-16 -1.0 100.0 50.0 250.0
-1.3179372056684673 2.192537470289462 1.078962028026581 0.0 2.220446049250313e-16 1.0 100.0 50.0 250.0
-0.44983417832471717 2.5575444684708053 0.3064610064029694 0.382532000541687 2.0515634290866686e-16 0.9239420294761658 100.0 50.0 250.0
-0.7166881962976633 2.6754684881651336 0.2862140238285065 0.0 2.220446049250313e-16 1.0 100.0 50.0 250.0
-0.6252161964140116 2.5004944713199073 0.2862140238285066 0.0 2.220446049250313e-16 1.0 100.0 50.0 250.0
-0.7892691894731699 2.339119075366252 1.0789620280265808 0.0 2.220446049250313e-16 1.0 100.0 50.0 250.0
-0.4589641793928324 1.9745254651987487 1.0473850071430209 0.0 -1.0 2.220446049250313e-16 100.0 50.0 250.0
-0.9994859948120295 2.0957514779055053 1.078962028026581 0.0 2.220446049250313e-16 1.0 100.0 50.0 250.0
-1.6027171715460002 2.112128479906314 0.2574210166931154 -0.6744149923324585 0.7383530139923096 -1.639473032871285e-16 100.0 50.0 250.0
-0.5438271864614664 2.540305478998416 1.0789620280265808 0.0 2.220446049250313e-16 1.0 100.0 50.0 250.0
-1.3635401829443157 2.5799384699547225 0.2862140238285065 0.0 2.220446049250313e-16 1.0 100.0 50.0 250.0
-1.6060671910009563 2.07243947548508 0.8710160106420519 -0.7383599877357483 -0.6744059920310974 1.0180715007823516e-10 100.0 50.0 250.0
-0.5408932074270426 2.2358234809124404 1.078962028026581 0.0 2.220446049250313e-16 1.0 100.0 50.0 250.0
-1.387743185397166 1.9745254651987487 1.176467001438141 0.0 -1.0 2.220446049250313e-16 100.0 50.0 250.0
-0.4756592019758402 2.370624094770246 0.2726380228996278 -0.7932900190353394 1.132558666088127e-10 -0.6088430285453796 100.0 50.0 250.0
-1.0265489538497508 2.72759146852135 1.0250080227851868 0.0 -2.220446049250313e-16 -1.0 100.0 50.0 250.0
-1.196845199104327 2.117743475862735 1.025008022785187 0.0 -2.220446049250313e-16 -1.0 100.0 50.0 250.0
-1.3916201993189037 1.9745254651987487 1.1517420411109927 0.0 -1.0 2.220446049250313e-16 100.0 50.0 250.0
-1.3056101902685344 2.179337470360988 1.078962028026581 0.0 2.220446049250313e-16 1.0 100.0 50.0 250.0
-1.5738191708288372 2.0626284615480834 0.322374999523163 0.0 2.220446049250313e-16 1.0 100.0 50.0 250.0
-1.3603911801538646 2.54806947571873 0.2862140238285065 0.0 2.220446049250313e-16 1.0 100.0 50.0 250.0
-0.5784992083273112 2.055457486339801 1.223182022571564 0.0 1.0 -2.220446049250313e-16 100.0 50.0 250.0
-0.9968870944640814 2.5364414737904006 1.0250080227851868 0.0 -2.220446049250313e-16 -1.0 100.0 50.0 250.0
-1.0172894239722967 2.092122478910678 1.025008022785187 0.0 -2.220446049250313e-16 -1.0 100.0 50.0 250.0
-1.6065641745290935 2.0835964815103942 0.026185989379883035 -0.9766520261764526 -0.21482700109481812 -4.241239659859006e-10 100.0 50.0 250.0
-0.6158391936979472 2.523004470893138 1.0250080227851868 0.0 -2.220446049250313e-16 -1.0 100.0 50.0 250.0
-1.6058631643018901 2.6983784870588714 0.3026820123195649 -0.793582022190094 5.7240934012492996e-11 0.6084640026092529 100.0 50.0 250.0
-0.8167471989355265 2.5712934718811447 1.0789620280265808 0.0 2.220446049250313e-16 1.0 100.0 50.0 250.0
-0.4641221865377604 2.063127471634143 0.8747300207614901 -0.30219098925590515 -0.9532470107078552 2.116633558885928e-16 100.0 50.0 250.0
-1.184370200272578 1.9745254651987487 1.0893550217151644 0.0 -1.0 2.220446049250313e-16 100.0 50.0 250.0
-0.5798211797437846 2.6008604751312667 1.0250080227851868 0.0 -2.220446049250313e-16 -1.0 100.0 50.0 250.0
-0.7066831990442454 2.272916472085708 1.0250080227851868 0.0 -2.220446049250313e-16 -1.0 100.0 50.0 250.0
-1.5451032026968181 2.272329478093379 1.0250080227851868 0.0 -2.220446049250313e-16 -1.0 100.0 50.0 250.0
-0.7984301998577296 2.7264984683477813 0.3127300143241883 -3.728220163146112e-11 -0.13050599396228768 0.9914469718933105 100.0 50.0 250.0
-1.0383805941156328 2.443119472392791 1.0250080227851868 0.0 -2.220446049250313e-16 -1.0 100.0 50.0 250.0
-1.5878731712064922 2.3669725745329195 0.26633501052856456 0.1303119957447052 -2.2015123482501173e-16 -0.9914730191230774 100.0 50.0 250.0
-1.0765917926392734 2.661380483337634 1.0789620280265808 0.0 2.220446049250313e-16 1.0 100.0 50.0 250.0
-1.047622793476957 2.509077473112338 0.2862140238285065 0.0 2.220446049250313e-16 1.0 100.0 50.0 250.0
-0.48406619870282996 2.0564444796526367 1.025008022785187 0.0 -2.220446049250313e-16 -1.0 100.0 50.0 250.0
-1.3242471917829692 2.334777376183265 0.2862140238285066 0.0 2.220446049250313e-16 1.0 100.0 50.0 250.0
-0.7859171881637751 2.7537054852926666 1.0789620280265808 0.0 2.220446049250313e-16 1.0 100.0 50.0 250.0
-0.8227321907243906 2.6517774598085815 1.0789620280265808 0.0 2.220446049250313e-16 1.0 100.0 50.0 250.0
-1.6003891929350078 2.0669754878961974 0.18943500518798845 -0.5383120179176331 -0.8427450060844421 1.8712698192856306e-16 100.0 50.0 250.0
-0.6913251980505167 2.579963474103206 0.2862140238285065 0.0 2.220446049250313e-16 1.0 100.0 50.0 250.0
-1.2203641935548961 2.7381144599401885 1.0250080227851868 0.0 -2.220446049250313e-16 -1.0 100.0 50.0 250.0
