ply
format ascii 1.0
element vertex 439
property float x
property float y
property float z
property float nx
property float ny
property float nz
property uchar red
property uchar green
property uchar blue
end_header
-1.417263454984957 0.07620004111659917 0.5763769894838333 -1.0 0.0 0.0 100.0 50.0 250.0
-0.22884041745596517 -0.5204459548579415 0.29876299202442186 0.0 2.220446049250313e-16 1.0 100.0 50.0 250.0
-1.2876954146140158 0.13894805604350963 0.7088049799203873 0.6427410244941711 0.7660840153694153 -4.439340045809061e-05 100.0 50.0 250.0
-1.2946984239333212 -0.21028894638883677 0.2786009907722474 0.0 -2.220446049250313e-16 -1.0 100.0 50.0 250.0
-0.1268874474280416 0.18782005006206437 0.7678429782390594 -1.0 0.0 0.0 100.0 50.0 250.0
-1.3642614551299155 -0.884366956411477 0.9421209990978243 0.0 -1.0 2.220446049250313e-16 100.0 50.0 250.0
-1.1807874210589469 0.04267704779041198 0.2635499835014343 0.6427379846572876 0.7660859823226929 -1.7010525928344686e-16 100.0 50.0 250.0
-0.45493141491346945 -0.8418999583111962 0.9274579882621767 0.0 -2.220446049250313e-16 -1.0 100.0 50.0 250.0
-1.0444904335253775 -0.11114895051586238 0.229098990559578 -0.6427389979362488 -0.7660859823226929 1.7010525928344686e-16 100.0 50.0 250.0
-0.417207426618868 -0.058889952360268394 0.899185985326767 0.6427369713783264 -0.766086995601654 1.7010548427657347e-16 100.0 50.0 250.0
-1.339820451330477 0.1756960480822365 0.9274579882621765 0.0 -2.220446049250313e-16 -1.0 100.0 50.0 250.0
-0.10672540147238363 -0.05062094038593379 0.5625609904527664 1.0 0.0 0.0 100.0 50.0 250.0
-1.073321438621813 -0.786707934795495 0.2865659892559054 0.0 -1.0 2.220446049250313e-16 100.0 50.0 250.0
-0.26452443678312887 -0.1915539473878105 0.9274579882621765 0.0 -2.220446049250313e-16 -1.0 100.0 50.0 250.0
-1.397101409029299 -0.3905322485254964 0.5802909880876542 1.0 0.0 0.0 100.0 50.0 250.0
-0.7847313277833997 -0.5134169430123529 0.2987629920244218 0.0 2.220446049250313e-16 1.0 100.0 50.0 250.0
-0.664819828461939 -0.1388479441987237 0.29876299202442175 0.0 2.220446049250313e-16 1.0 100.0 50.0 250.0
-0.8802044310086309 -0.7167879611836633 0.9476199746131899 0.0 2.220446049250313e-16 1.0 100.0 50.0 250.0
-1.2213164337390006 0.08496505314243241 0.9274579882621765 0.0 -2.220446049250313e-16 -1.0 100.0 50.0 250.0
-0.6852550276034414 -0.023366954980965415 0.9274579882621765 0.0 -2.220446049250313e-16 -1.0 100.0 50.0 250.0
-0.3998284407370626 -0.7121039599763116 0.9476199746131899 0.0 2.220446049250313e-16 1.0 100.0 50.0 250.0
-1.304875440191561 -0.7118169338093957 0.9274579882621767 0.0 -2.220446049250313e-16 -1.0 100.0 50.0 250.0
-0.7411768280380308 0.07465803915393737 0.2786009907722473 0.0 -2.220446049250313e-16 -1.0 100.0 50.0 250.0
-1.0239824422114432 -0.12835794395076827 0.8712299764156342 -0.6427350044250488 -0.7660880088806152 1.7010570926970009e-16 100.0 50.0 250.0
-0.18079740483694662 0.15967905813587108 0.7291119992733002 0.765434980392456 0.6422119736671448 0.04089890047907815 100.0 50.0 250.0
-0.1268874474280416 -0.3317583976197874 0.7204899936914445 -1.0 0.0 0.0 100.0 50.0 250.0
-1.3017904229872763 -0.8105959565030297 0.8694749772548678 0.6426849961280823 -0.7661309838294983 2.2776599507948998e-05 100.0 50.0 250.0
-0.1268874474280416 0.17631206208599015 0.8425279855728149 -1.0 0.0 0.0 100.0 50.0 250.0
-0.5391744293683111 -0.5213999420987329 0.21811500191688554 0.0 -2.220446049250313e-16 -1.0 100.0 50.0 250.0
-0.1268874474280416 -0.02806594675647822 0.6296469867229462 -1.0 0.0 0.0 100.0 50.0 250.0
-0.1268874474280416 -0.08382095104324427 0.6326169818639755 -1.0 0.0 0.0 100.0 50.0 250.0
-0.3887394138091146 -0.10735894447433558 0.27860099077224737 0.0 -2.220446049250313e-16 -1.0 100.0 50.0 250.0
-1.0525984235518515 -0.14340294605362025 0.2987629920244218 0.0 2.220446049250313e-16 1.0 100.0 50.0 250.0
-0.10672540147238363 -0.32570460751893726 0.5312886871397496 1.0 0.0 0.0 100.0 50.0 250.0
-0.14494443614416708 0.17589506799114152 0.9476199746131897 0.0 2.220446049250313e-16 1.0 100.0 50.0 250.0
-0.1977664299719869 -0.8310939342366418 0.32135199010372184 -0.6427289843559265 -0.7660930156707764 2.4536200273242087e-06 100.0 50.0 250.0
-0.2278814383261739 0.14600804740322032 0.8013059794902802 -0.6427329778671265 0.7660899758338928 -1.1644900041744253e-05 100.0 50.0 250.0
-0.5993504293673574 -0.21170494413244334 0.24529798328876504 0.6427350044250488 -0.7660890221595764 1.701059342628267e-16 100.0 50.0 250.0
-0.2008954354041158 -0.8284679622040948 0.4404560886323454 -0.6427279710769653 -0.7660940289497375 7.226889808289659e-07 100.0 50.0 250.0
-1.277142412256533 -0.5159739524708946 0.9274579882621767 0.0 -2.220446049250313e-16 -1.0 100.0 50.0 250.0
-0.884387425374323 -0.830624964891549 0.9476199746131899 0.0 2.220446049250313e-16 1.0 100.0 50.0 250.0
-0.4148944385760366 -0.4628559470759591 0.2786009907722474 0.0 -2.220446049250313e-16 -1.0 100.0 50.0 250.0
-0.1268874474280416 -0.3431229478331168 0.8581229746341706 -1.0 0.0 0.0 100.0 50.0 250.0
-1.417263454984957 -0.6659029394971093 0.8696499764919283 -1.0 0.0 0.0 100.0 50.0 250.0
-0.10672540147238363 -0.44874895071851817 0.4686493673361839 1.0 0.0 0.0 100.0 50.0 250.0
-0.15078545291357626 0.1580540567053595 0.12913799285888672 0.6427509784698486 -0.7660750150680542 -1.4343399925394779e-05 100.0 50.0 250.0
-0.8895854272358953 0.07006904775035766 0.2987629920244217 0.0 2.220446049250313e-16 1.0 100.0 50.0 250.0
-1.397101409029299 -0.21733594393598632 0.8415749967098237 1.0 0.0 0.0 100.0 50.0 250.0
-0.10672540147238363 -0.10954394644367305 0.667402982711792 1.0 0.0 0.0 100.0 50.0 250.0
-0.5685504295342504 -0.4739549428807457 0.8582239747047427 0.6427369713783264 0.766086995601654 -1.7010548427657347e-16 100.0 50.0 250.0
-1.201603419374758 -0.680481937585946 0.8649379909038546 -0.6427350044250488 0.7660880088806152 -1.7010570926970009e-16 100.0 50.0 250.0
-0.1268874474280416 -0.3082407478826007 0.6849979907274247 -1.0 0.0 0.0 100.0 50.0 250.0
-0.8074676275663911 -0.5558019549237451 0.9274579882621767 0.0 -2.220446049250313e-16 -1.0 100.0 50.0 250.0
-1.417263454984957 -0.4181424499140939 0.5038225874304773 -1.0 0.0 0.0 100.0 50.0 250.0
-0.1268874474280416 -0.39835914677249995 0.5999009907245637 -1.0 0.0 0.0 100.0 50.0 250.0
-0.8833334289901792 -0.2928522460745534 0.2786009907722474 0.0 -2.220446049250313e-16 -1.0 100.0 50.0 250.0
-0.8414747260921537 -0.27015554612743464 0.2987629920244218 0.0 2.220446049250313e-16 1.0 100.0 50.0 250.0
-0.1268874474280416 -0.19604894226657954 0.39745409041643154 -1.0 0.0 0.0 100.0 50.0 250.0
-0.1268874474280416 -0.02518894976245961 0.8196839988231659 -1.0 0.0 0.0 100.0 50.0 250.0
-1.397101409029299 -0.790646937547799 0.8535510003566744 1.0 0.0 0.0 100.0 50.0 250.0
-0.10672540147238363 -0.26672884529697505 0.5755479857325555 1.0 0.0 0.0 100.0 50.0 250.0
-1.1482404239886344 -0.6103839547024926 0.2786009907722475 0.0 -2.220446049250313e-16 -1.0 100.0 50.0 250.0
-1.0476054318659842 0.00030005270374222626 0.9476199746131897 0.0 2.220446049250313e-16 1.0 100.0 50.0 250.0
-1.3469494052641928 0.1360270410193244 0.38000088930130005 -0.6427329778671265 -0.7660899758338928 2.44645998465667e-05 100.0 50.0 250.0
-0.10672540147238363 -0.293765646277543 0.390906684100628 1.0 0.0 0.0 100.0 50.0 250.0
-0.1268874474280416 -0.5654749543057641 0.6617969870567324 -1.0 0.0 0.0 100.0 50.0 250.0
-1.0134014256709158 -0.22492194628583984 0.9476199746131898 0.0 2.220446049250313e-16 1.0 100.0 50.0 250.0
-0.9639454253428518 -0.4810909450637062 0.8554389774799349 -0.6427350044250488 0.7660880088806152 -1.7010570926970009e-16 100.0 50.0 250.0
-1.417263454984957 -0.639867958484765 0.7832779884338381 -1.0 0.0 0.0 100.0 50.0 250.0
-0.8811314247959195 -0.0760599345551689 0.9274579882621765 0.0 -2.220446049250313e-16 -1.0 100.0 50.0 250.0
-0.10672540147238363 -0.1968059510575494 0.43489358574152004 1.0 0.0 0.0 100.0 50.0 250.0
-0.5560664304011403 -0.333284587471362 0.2987629920244218 0.0 2.220446049250313e-16 1.0 100.0 50.0 250.0
-1.417263454984957 -0.21989594852792826 0.42861758545041095 -1.0 0.0 0.0 100.0 50.0 250.0
-0.10672540147238363 -0.4750479430543145 0.7642319798469546 1.0 0.0 0.0 100.0 50.0 250.0
-0.6696635254138051 0.20685103827846452 0.9274579882621765 0.0 -2.220446049250313e-16 -1.0 100.0 50.0 250.0
-0.703508029919201 -0.2874135457562168 0.8468089997768403 0.0 -2.220446049250313e-16 -1.0 100.0 50.0 250.0
-0.23453444917135824 -0.5098019511090477 0.9476199746131899 0.0 2.220446049250313e-16 1.0 100.0 50.0 250.0
-0.92146543343001 -0.5695359528647622 0.9476199746131899 0.0 2.220446049250313e-16 1.0 100.0 50.0 250.0
-0.21560741145544637 0.15630504781139287 0.5759619846940041 -0.6427299976348877 0.7660930156707764 4.8365600376318664e-06 100.0 50.0 250.0
-1.0491264231913626 -0.024993953167076866 0.9274579882621765 0.0 -2.220446049250313e-16 -1.0 100.0 50.0 250.0
-1.417263454984957 -0.2766960457550247 0.7429329752922059 -1.0 0.0 0.0 100.0 50.0 250.0
-0.9266054250710546 -0.011360940395470587 0.2987629920244217 0.0 2.220446049250313e-16 1.0 100.0 50.0 250.0
-1.049160427641207 -0.10723495191204147 0.8587429821491241 -0.6427350044250488 -0.7660880088806152 1.7010570926970009e-16 100.0 50.0 250.0
-0.6028244264834463 -0.12089894419776992 0.9274579882621765 0.0 -2.220446049250313e-16 -1.0 100.0 50.0 250.0
-0.17509145219259847 -0.6411449581967553 0.9274579882621767 0.0 -2.220446049250313e-16 -1.0 100.0 50.0 250.0
-0.5258934267275869 -0.8188179404126367 0.9274579882621767 0.0 -2.220446049250313e-16 -1.0 100.0 50.0 250.0
-0.21500343758993734 -0.4456849441515167 0.9274579882621766 0.0 -2.220446049250313e-16 -1.0 100.0 50.0 250.0
-0.7081193283610879 -0.36671654587852553 0.9274579882621766 0.0 -2.220446049250313e-16 -1.0 100.0 50.0 250.0
-0.419458425831133 -0.19741394823658076 0.2987629920244218 0.0 2.220446049250313e-16 1.0 100.0 50.0 250.0
-1.100960440229708 -0.6355179519044122 0.9258909821510317 0.6427310109138489 -0.7660920023918152 1.7010659600731674e-16 100.0 50.0 250.0
-1.2680424519293845 -0.5983219415532312 0.2786009907722475 0.0 -2.220446049250313e-16 -1.0 100.0 50.0 250.0
-0.8502351262085973 0.14403605753314896 0.9476199746131897 0.0 2.220446049250313e-16 1.0 100.0 50.0 250.0
-1.397101409029299 -0.19881894892322627 0.7074419856071473 1.0 0.0 0.0 100.0 50.0 250.0
-1.2343334325068533 -0.18237994319068995 0.2786009907722474 0.0 -2.220446049250313e-16 -1.0 100.0 50.0 250.0
-0.5956224270575582 -0.5079849482165536 0.2786009907722474 0.0 -2.220446049250313e-16 -1.0 100.0 50.0 250.0
-1.0043704279177725 -0.10533894306289748 0.8661739826202393 0.6427310109138489 0.7660920023918152 -1.7010659600731674e-16 100.0 50.0 250.0
-1.0277114279978812 0.15446004563701554 0.9476199746131897 0.0 2.220446049250313e-16 1.0 100.0 50.0 250.0
-1.417263454984957 -0.79904696053135 0.7261909842491152 -1.0 0.0 0.0 100.0 50.0 250.0
-0.4662954278700887 -0.06411295837032405 0.21811500191688543 0.0 -2.220446049250313e-16 -1.0 100.0 50.0 250.0
-0.6070634343140661 -0.4177626491175851 0.2786009907722474 0.0 -2.220446049250313e-16 -1.0 100.0 50.0 250.0
-0.46840641577177633 -0.6165029377328118 0.9476199746131899 0.0 2.220446049250313e-16 1.0 100.0 50.0 250.0
-1.397101409029299 0.011744055093650008 0.8021619915962219 1.0 0.0 0.0 100.0 50.0 250.0
-0.11463040788107504 -0.7907369405614099 0.6250119805336001 0.0 -0.7933509945869447 -0.6087639927864072 100.0 50.0 250.0
-0.32417742092543234 0.049202057660941156 0.2987629920244217 0.0 2.220446049250313e-16 1.0 100.0 50.0 250.0
-0.6593714274876653 -0.4701119483100137 0.2987629920244218 0.0 2.220446049250313e-16 1.0 100.0 50.0 250.0
-0.207016415190035 -0.7772759467946252 0.26077798008918784 0.64273601770401 0.7660880088806152 -1.7010570926970009e-16 100.0 50.0 250.0
-1.2550774284117758 -0.7885999352322778 0.9476199746131899 0.0 2.220446049250313e-16 1.0 100.0 50.0 250.0
-0.10672540147238363 -0.4627719492303094 0.5529866889119149 1.0 0.0 0.0 100.0 50.0 250.0
-0.3797604211085378 -0.38088224908578006 0.2786009907722474 0.0 -2.220446049250313e-16 -1.0 100.0 50.0 250.0
-0.8450145267360746 -0.3722694486962518 0.2786009907722474 0.0 -2.220446049250313e-16 -1.0 100.0 50.0 250.0
-0.978354430984789 -0.6643339366303643 0.9274579882621767 0.0 -2.220446049250313e-16 -1.0 100.0 50.0 250.0
-1.3433814116232932 -0.8305439621792993 0.5535597875714304 -0.7641329765319824 -0.640874981880188 0.07334499806165709 100.0 50.0 250.0
-1.2875814505332053 -0.18511494701969222 0.9476199746131897 0.0 2.220446049250313e-16 1.0 100.0 50.0 250.0
-0.8800894312971174 -0.720025953708764 0.9274579882621767 0.0 -2.220446049250313e-16 -1.0 100.0 50.0 250.0
-0.575694433640772 -0.6675969333039483 0.2987629920244219 0.0 2.220446049250313e-16 1.0 100.0 50.0 250.0
-0.4381294317954122 0.13219705516231461 0.9274579882621765 0.0 -2.220446049250313e-16 -1.0 100.0 50.0 250.0
-1.1529384322875083 -0.047493961511727245 0.27860099077224737 0.0 -2.220446049250313e-16 -1.0 100.0 50.0 250.0
-0.17767441947394003 0.1354930430067816 0.17866498231887817 0.6427469849586487 -0.766077995300293 3.644810021966833e-06 100.0 50.0 250.0
-1.395724422525698 0.1851510732783117 0.0684249997138977 -0.7586719989776611 0.6366890072822571 0.13800099492073045 100.0 50.0 250.0
-0.6373934291713773 -0.6667919427739343 0.9476199746131899 0.0 2.220446049250313e-16 1.0 100.0 50.0 250.0
-0.6632021286004125 0.028505060018424067 0.2786009907722473 0.0 -2.220446049250313e-16 -1.0 100.0 50.0 250.0
-0.11066342074804891 -0.2706729479716977 0.3807976841926576 0.0 0.13051700592040993 -0.9914460182189941 100.0 50.0 250.0
-0.7164751284235059 -0.6565279335366448 0.2987629920244219 0.0 2.220446049250313e-16 1.0 100.0 50.0 250.0
-1.356061405729586 -0.271314346103545 0.9476199746131898 0.0 2.220446049250313e-16 1.0 100.0 50.0 250.0
-0.1268874474280416 -0.09306195086109248 0.4753758272854612 -1.0 0.0 0.0 100.0 50.0 250.0
-0.9570844240897237 -0.33924339792000857 0.2987629920244218 0.0 2.220446049250313e-16 1.0 100.0 50.0 250.0
-0.7292238280587732 -0.05145495837795333 0.9476199746131897 0.0 2.220446049250313e-16 1.0 100.0 50.0 250.0
-0.10672540147238363 -0.3816382483230789 0.7945039868354798 1.0 0.0 0.0 100.0 50.0 250.0
-1.2663934298270285 -0.30424434772002296 0.9476199746131898 0.0 2.220446049250313e-16 1.0 100.0 50.0 250.0
-1.3505734272711813 -0.8767369658337792 0.9476199746131899 0.0 2.220446049250313e-16 1.0 100.0 50.0 250.0
-0.4741244383566915 -0.06716695135700301 0.8537129759788513 -0.6427369713783264 0.766086995601654 -1.7010548427657347e-16 100.0 50.0 250.0
-0.7893726278507053 -0.7554569513188562 0.9476199746131899 0.0 2.220446049250313e-16 1.0 100.0 50.0 250.0
-0.3299654193633138 -0.5914059550152978 0.9476199746131899 0.0 2.220446049250313e-16 1.0 100.0 50.0 250.0
-0.7744648281895458 -0.4534999475465973 0.9476199746131898 0.0 2.220446049250313e-16 1.0 100.0 50.0 250.0
-0.25608343560629476 -0.28173014601933555 0.9274579882621766 0.0 -2.220446049250313e-16 -1.0 100.0 50.0 250.0
-1.2192134328597128 -0.770297941623803 0.9274579882621767 0.0 -2.220446049250313e-16 -1.0 100.0 50.0 250.0
-0.3339434333556234 -0.1893649519072731 0.9476199746131897 0.0 2.220446049250313e-16 1.0 100.0 50.0 250.0
-1.3755384155028403 -0.44787094449865417 0.9476199746131898 0.0 2.220446049250313e-16 1.0 100.0 50.0 250.0
-0.2560424276106893 0.11580306583774475 0.25777098536491394 -0.64273601770401 0.7660880088806152 -1.7010570926970009e-16 100.0 50.0 250.0
-0.6241604306214391 -0.43077394819128123 0.2786009907722474 0.0 -2.220446049250313e-16 -1.0 100.0 50.0 250.0
-0.8481694303863584 0.05273804360759643 0.2786009907722473 0.0 -2.220446049250313e-16 -1.0 100.0 50.0 250.0
-1.0555974312537253 0.03475404077899841 0.2786009907722473 0.0 -2.220446049250313e-16 -1.0 100.0 50.0 250.0
-1.3035524554961264 -0.7594359487878045 0.7931459844112398 -0.6427029967308044 0.7661150097846985 -1.720180080172853e-05 100.0 50.0 250.0
-0.3320074148886739 -0.6724109620438775 0.9051689803600313 0.6427369713783264 0.766086995601654 -1.7010548427657347e-16 100.0 50.0 250.0
-0.6702822290771543 -0.24758724576103286 0.8468089997768403 0.0 -2.220446049250313e-16 -1.0 100.0 50.0 250.0
-0.510720438551241 -0.32607804761509196 0.9476199746131898 0.0 2.220446049250313e-16 1.0 100.0 50.0 250.0
-1.1303824253790915 -0.7313879401074609 0.2987629920244219 0.0 2.220446049250313e-16 1.0 100.0 50.0 250.0
-1.1573864289038718 -0.6828629345284661 0.23366399109363575 0.64273601770401 -0.7660880088806152 1.7010570926970009e-16 100.0 50.0 250.0
-0.5664624341242849 -0.10017794078456965 0.27860099077224737 0.0 -2.220446049250313e-16 -1.0 100.0 50.0 250.0
-0.5684524245970785 -0.6664149433957299 0.9476199746131899 0.0 2.220446049250313e-16 1.0 100.0 50.0 250.0
-1.061658418964678 -0.6736329466687402 0.2987629920244219 0.0 2.220446049250313e-16 1.0 100.0 50.0 250.0
-0.20435041863852133 -0.46460094755756454 0.9274579882621767 0.0 -2.220446049250313e-16 -1.0 100.0 50.0 250.0
-0.29614943940573324 0.11679706269634155 0.2987629920244217 0.0 2.220446049250313e-16 1.0 100.0 50.0 250.0
-0.6211334236376821 -0.22998014545309153 0.23078298568725594 0.6427350044250488 -0.7660890221595764 1.701059342628267e-16 100.0 50.0 250.0
-1.373133427690798 0.1714940398348609 0.27772898972034454 -0.7607399821281433 0.640362024307251 0.10588199645280824 100.0 50.0 250.0
-0.5504294254296361 -0.13034695094692306 0.9476199746131897 0.0 2.220446049250313e-16 1.0 100.0 50.0 250.0
-0.2625744410269796 -0.04427295631038741 0.9476199746131897 0.0 2.220446049250313e-16 1.0 100.0 50.0 250.0
-0.325149423670107 -0.6849099368439874 0.9476199746131899 0.0 2.220446049250313e-16 1.0 100.0 50.0 250.0
-1.0180824168437064 0.1211780636919777 0.9274579882621765 0.0 -2.220446049250313e-16 -1.0 100.0 50.0 250.0
-0.3070074387305318 -0.7688769370900354 0.9476199746131899 0.0 2.220446049250313e-16 1.0 100.0 50.0 250.0
-1.2618164189570487 -0.7770559460507592 0.7082129865884783 0.6427410244941711 -0.7660830020904541 -4.42650998591607e-05 100.0 50.0 250.0
-1.417263454984957 -0.8701539308415612 0.8577449917793276 -1.0 0.0 0.0 100.0 50.0 250.0
-1.3201434083693564 0.11353606277835765 0.7633589804172516 -0.6426979899406433 -0.7661200165748596 -8.499459909046853e-06 100.0 50.0 250.0
-1.097179419588381 -0.20510894512998656 0.9274579882621766 0.0 -2.220446049250313e-16 -1.0 100.0 50.0 250.0
-0.10672540147238363 0.03034603887927928 0.8252779841423035 1.0 0.0 0.0 100.0 50.0 250.0
-0.26203942973547567 -0.09300094550716487 0.29876299202442175 0.0 2.220446049250313e-16 1.0 100.0 50.0 250.0
-0.39888242561751 0.015913042367819985 0.9476199746131897 0.0 2.220446049250313e-16 1.0 100.0 50.0 250.0
-0.8381406285279333 -0.4150201500045022 0.27182598412036907 0.64273601770401 -0.7660880088806152 1.7010570926970009e-16 100.0 50.0 250.0
-0.7339925274663507 -0.27324944814908114 0.2786009907722474 0.0 -2.220446049250313e-16 -1.0 100.0 50.0 250.0
-0.5189234234803258 -0.1442289472209175 0.8675809800624847 0.6427369713783264 -0.766086995601654 1.7010548427657347e-16 100.0 50.0 250.0
-1.397101409029299 -0.6963729531155786 0.6906259804964068 1.0 0.0 0.0 100.0 50.0 250.0
-1.2736164398902 -0.7869619399892053 0.8055629730224612 0.6427410244941711 -0.7660830020904541 -4.42650998591607e-05 100.0 50.0 250.0
-1.417263454984957 -0.20325495010482875 0.590884990990162 -1.0 0.0 0.0 100.0 50.0 250.0
-0.6603964262121259 -0.22344495063888636 0.2416269928216935 -0.64273601770401 0.7660880088806152 -1.7010570926970009e-16 100.0 50.0 250.0
-0.13458240706854452 -0.8314679533826074 0.08849799633026145 0.6427279710769653 0.766094982624054 -2.4150199353125888e-06 100.0 50.0 250.0
-0.10672540147238363 0.14701405459773936 0.7091609835624695 1.0 0.0 0.0 100.0 50.0 250.0
-0.8155562274568616 -0.05389493411647872 0.9274579882621765 0.0 -2.220446049250313e-16 -1.0 100.0 50.0 250.0
-0.6790152259581624 -0.038162943779106895 0.9274579882621765 0.0 -2.220446049250313e-16 -1.0 100.0 50.0 250.0
-1.397101409029299 -0.3985907480703552 0.90523499250412 1.0 0.0 0.0 100.0 50.0 250.0
-0.10672540147238363 -0.25927724397050944 0.6265929937362672 1.0 0.0 0.0 100.0 50.0 250.0
-0.5802234329693853 -0.4395799458609779 0.9476199746131898 0.0 2.220446049250313e-16 1.0 100.0 50.0 250.0
-0.42974544246130575 -0.6064539522515496 0.29876299202442186 0.0 2.220446049250313e-16 1.0 100.0 50.0 250.0
-1.3149784274809897 -0.821663942991372 0.296410992741585 0.6426600217819214 -0.7661510109901428 5.993470040283414e-05 100.0 50.0 250.0
-1.348525411676699 0.18389204436672124 0.38491398841142654 -0.764149010181427 0.6408560276031494 0.07335039973258958 100.0 50.0 250.0
-0.45080042560034383 -0.015135940967675177 0.2987629920244217 0.0 2.220446049250313e-16 1.0 100.0 50.0 250.0
-1.417263454984957 -0.4758249492036065 0.4912051875144245 -1.0 0.0 0.0 100.0 50.0 250.0
-1.3462694354765952 -0.6884289354668817 0.9476199746131899 0.0 2.220446049250313e-16 1.0 100.0 50.0 250.0
-0.2066434093230306 -0.8236459464417657 0.4975196868181231 -0.6427279710769653 -0.7660940289497375 7.226889808289659e-07 100.0 50.0 250.0
-1.397101409029299 -0.09587295061218337 0.7907519936561584 1.0 0.0 0.0 100.0 50.0 250.0
-1.243506438326174 -0.5303259462701043 0.2786009907722475 0.0 -2.220446049250313e-16 -1.0 100.0 50.0 250.0
-1.1352344222777426 -0.46959294086563197 0.2987629920244218 0.0 2.220446049250313e-16 1.0 100.0 50.0 250.0
-1.1818804212325156 0.04359504872692016 0.23261098563671115 0.6427379846572876 0.7660859823226929 -1.7010525928344686e-16 100.0 50.0 250.0
-1.268056399416262 -0.2104889497743806 0.2987629920244218 0.0 2.220446049250313e-16 1.0 100.0 50.0 250.0
-1.417263454984957 -0.6096629471169671 0.7723339796066286 -1.0 0.0 0.0 100.0 50.0 250.0
-0.7999148287289678 -0.1429559410201271 0.9476199746131897 0.0 2.220446049250313e-16 1.0 100.0 50.0 250.0
-0.216987437795931 -0.5889019340859613 0.2912199944257738 1.0 0.0 0.0 100.0 50.0 250.0
-1.09962842543059 -0.3541289482848605 0.2786009907722474 0.0 -2.220446049250313e-16 -1.0 100.0 50.0 250.0
-0.9124414243214666 -0.8570139676915368 0.9476199746131899 0.0 2.220446049250313e-16 1.0 100.0 50.0 250.0
-1.1355794139617026 -0.051069942175026806 0.29876299202442175 0.0 2.220446049250313e-16 1.0 100.0 50.0 250.0
-1.007008425187403 -0.4695729435073097 0.9274579882621767 0.0 -2.220446049250313e-16 -1.0 100.0 50.0 250.0
-0.8534196310155927 -0.2714555457817277 0.2645559906959535 -0.6427389979362488 -0.7660859823226929 1.7010525928344686e-16 100.0 50.0 250.0
-0.10672540147238363 -0.4469209507690629 0.5354956872761251 1.0 0.0 0.0 100.0 50.0 250.0
-1.217778421234423 -0.851812925993081 0.9274579882621767 0.0 -2.220446049250313e-16 -1.0 100.0 50.0 250.0
-0.966771430563265 -0.48346194332706527 0.925794988870621 -0.6427350044250488 0.7660880088806152 -1.7010570926970009e-16 100.0 50.0 250.0
-1.3554194041007102 -0.8029519588338098 0.663889989256859 -0.6427090167999268 0.7661100029945374 -2.8648899388087593e-05 100.0 50.0 250.0
-0.6201434351914464 -0.10680094069110946 0.9476199746131897 0.0 2.220446049250313e-16 1.0 100.0 50.0 250.0
-0.4006664224379598 0.09146404558551696 0.2786009907722473 0.0 -2.220446049250313e-16 -1.0 100.0 50.0 250.0
-0.5454954274409353 -0.5519099504338464 0.9476199746131899 0.0 2.220446049250313e-16 1.0 100.0 50.0 250.0
-0.6892676271908819 0.2221040456904213 0.9274579882621765 0.0 -2.220446049250313e-16 -1.0 100.0 50.0 250.0
-0.311965442489916 -0.4283294499503334 0.9274579882621766 0.0 -2.220446049250313e-16 -1.0 100.0 50.0 250.0
-1.417263454984957 -0.30996104782688216 0.8324899971485139 -1.0 0.0 0.0 100.0 50.0 250.0
-0.2911434241049825 -0.3116947476403674 0.2987629920244218 0.0 2.220446049250313e-16 1.0 100.0 50.0 250.0
-1.3716124363654196 -0.8165369600640496 0.2515299916267397 -0.64274001121521 0.7660850286483765 5.6734897951291415e-06 100.0 50.0 250.0
-0.9914254315608083 -0.7688769370900354 0.9274579882621767 0.0 -2.220446049250313e-16 -1.0 100.0 50.0 250.0
-1.234396434616381 -0.11842794424163894 0.9274579882621765 0.0 -2.220446049250313e-16 -1.0 100.0 50.0 250.0
-1.3033624358885825 -0.1059819430695732 0.9274579882621765 0.0 -2.220446049250313e-16 -1.0 100.0 50.0 250.0
-1.333889431547457 -0.8375199705945214 0.3816112875938418 0.642661988735199 -0.7661499977111816 6.382389983644958e-05 100.0 50.0 250.0
-0.10672540147238363 -0.5539139479981622 0.48234976734966056 1.0 0.0 0.0 100.0 50.0 250.0
-0.8985694267266332 -0.07756194180118647 0.27860099077224737 0.0 -2.220446049250313e-16 -1.0 100.0 50.0 250.0
-0.1268874474280416 -0.23112644708025065 0.5992799848318101 -1.0 0.0 0.0 100.0 50.0 250.0
-0.1856984563582479 0.12876305276286998 0.6493309885263443 0.6427459716796875 -0.7660790085792542 2.5671400311423985e-07 100.0 50.0 250.0
-1.2543824382536948 0.053344044031027826 0.2987629920244217 0.0 2.220446049250313e-16 1.0 100.0 50.0 250.0
-1.397101409029299 0.19252303534877702 0.8642969727516174 1.0 0.0 0.0 100.0 50.0 250.0
-0.1268874474280416 -0.609659937082406 0.6732369810342791 -1.0 0.0 0.0 100.0 50.0 250.0
-0.967231429409319 -0.13649694329368667 0.9196779727935791 0.6427310109138489 0.7660920023918152 -1.7010659600731674e-16 100.0 50.0 250.0
-1.2055754431002677 -0.37858564859497146 0.9476199746131898 0.0 2.220446049250313e-16 1.0 100.0 50.0 250.0
-1.0501294203513205 -0.033113953529473106 0.9274579882621765 0.0 -2.220446049250313e-16 -1.0 100.0 50.0 250.0
-0.9606814302914678 0.06804904633891967 0.2987629920244217 0.0 2.220446049250313e-16 1.0 100.0 50.0 250.0
-0.35676941950255026 -0.035324958025093944 0.27860099077224737 0.0 -2.220446049250313e-16 -1.0 100.0 50.0 250.0
-1.2552634247057974 -0.006761935411568609 0.2786009907722473 0.0 -2.220446049250313e-16 -1.0 100.0 50.0 250.0
-0.8574777312987386 -0.09910595124828414 0.9274579882621765 0.0 -2.220446049250313e-16 -1.0 100.0 50.0 250.0
-0.46626842696600546 -0.7324809402810296 0.2987629920244219 0.0 2.220446049250313e-16 1.0 100.0 50.0 250.0
-0.7981891289763986 -0.2859763473855218 0.2987629920244218 0.0 2.220446049250313e-16 1.0 100.0 50.0 250.0
-0.515448427986437 -0.21769694691764907 0.9274579882621766 0.0 -2.220446049250313e-16 -1.0 100.0 50.0 250.0
-0.9334924288504659 -0.22193395054208842 0.2786009907722474 0.0 -2.220446049250313e-16 -1.0 100.0 50.0 250.0
-0.5198064215891897 -0.24684174811708537 0.2987629920244218 0.0 2.220446049250313e-16 1.0 100.0 50.0 250.0
-0.3265104361289083 -0.17785294061767665 0.2786009907722474 0.0 -2.220446049250313e-16 -1.0 100.0 50.0 250.0
-1.2614614136927664 -0.7972989351140222 0.9274579882621767 0.0 -2.220446049250313e-16 -1.0 100.0 50.0 250.0
-1.417263454984957 -0.03817593759166804 0.7693779766559601 -1.0 0.0 0.0 100.0 50.0 250.0
-0.36733744223051656 -0.02577194279300765 0.9476199746131897 0.0 2.220446049250313e-16 1.0 100.0 50.0 250.0
-0.1268874474280416 -0.6313979596482476 0.7874459922313692 -1.0 0.0 0.0 100.0 50.0 250.0
-0.10672540147238363 -0.4319189459668359 0.4767197873443366 1.0 0.0 0.0 100.0 50.0 250.0
-1.1239494152777731 -0.005008933006401983 0.24911399185657504 0.6427379846572876 0.7660859823226929 -1.7010525928344686e-16 100.0 50.0 250.0
-1.102242416929537 0.14723503881824418 0.9274579882621765 0.0 -2.220446049250313e-16 -1.0 100.0 50.0 250.0
-1.397101409029299 -0.46289294665920333 0.8434699773788454 1.0 0.0 0.0 100.0 50.0 250.0
-0.9711014248841344 -0.5465459496365747 0.9274579882621767 0.0 -2.220446049250313e-16 -1.0 100.0 50.0 250.0
-1.2964264221900046 -0.10808194881546096 0.9476199746131897 0.0 2.220446049250313e-16 1.0 100.0 50.0 250.0
-0.3515854247325002 -0.18441395169365016 0.2987629920244218 0.0 2.220446049250313e-16 1.0 100.0 50.0 250.0
-0.7950223267489015 -0.28097614726292686 0.8877739906311036 0.6427310109138489 0.7660920023918152 -1.7010659600731674e-16 100.0 50.0 250.0
-1.2057894237750113 0.11286706024539855 0.2987629920244217 0.0 2.220446049250313e-16 1.0 100.0 50.0 250.0
-0.49980241734915365 -0.3697519459413251 0.2786009907722474 0.0 -2.220446049250313e-16 -1.0 100.0 50.0 250.0
-1.417263454984957 -0.355390648229595 0.859586000442505 -1.0 0.0 0.0 100.0 50.0 250.0
-1.397101409029299 -0.4557419539080819 0.48542478773742925 1.0 0.0 0.0 100.0 50.0 250.0
-0.7350495282971202 -0.6379739612923822 0.2786009907722475 0.0 -2.220446049250313e-16 -1.0 100.0 50.0 250.0
-0.6174734302275716 -0.15139494544136123 0.9476199746131897 0.0 2.220446049250313e-16 1.0 100.0 50.0 250.0
-1.376159436296755 -0.6542489499436578 0.9476199746131899 0.0 2.220446049250313e-16 1.0 100.0 50.0 250.0
-1.397101409029299 -0.18454694455730525 0.6506189852952958 1.0 0.0 0.0 100.0 50.0 250.0
-1.397101409029299 -0.8019469351159295 0.849713981151581 1.0 0.0 0.0 100.0 50.0 250.0
-1.3839164443724692 -0.18538994794952468 0.9476199746131897 0.0 2.220446049250313e-16 1.0 100.0 50.0 250.0
-0.750906428549522 -0.7124599487172326 0.9274579882621767 0.0 -2.220446049250313e-16 -1.0 100.0 50.0 250.0
-0.16826743562155355 0.18685302430522832 0.31036998331546783 0.7617999911308289 0.6391299962997437 0.1057069972157477 100.0 50.0 250.0
-1.3858864374869406 0.14048704797161027 0.9476199746131897 0.0 2.220446049250313e-16 1.0 100.0 50.0 250.0
-1.3903404541724265 0.19181505137813493 0.9274579882621765 0.0 -2.220446049250313e-16 -1.0 100.0 50.0 250.0
-0.6652230315321027 -0.30684444761144714 0.9274579882621766 0.0 -2.220446049250313e-16 -1.0 100.0 50.0 250.0
-1.1359214254134238 -0.31059334693717555 0.9274579882621766 0.0 -2.220446049250313e-16 -1.0 100.0 50.0 250.0
-0.7533204278387963 -0.5624709547148904 0.9274579882621767 0.0 -2.220446049250313e-16 -1.0 100.0 50.0 250.0
-0.4440094300025045 0.05373606377971557 0.2786009907722473 0.0 -2.220446049250313e-16 -1.0 100.0 50.0 250.0
-0.9840824224465429 -0.19451594060527888 0.2786009907722474 0.0 -2.220446049250313e-16 -1.0 100.0 50.0 250.0
-0.2163104482405721 -0.15660494273769454 0.9274579882621765 0.0 -2.220446049250313e-16 -1.0 100.0 50.0 250.0
-0.6426844291799604 -0.24788764572012034 0.2181150019168855 0.0 -2.220446049250313e-16 -1.0 100.0 50.0 250.0
-0.10672540147238363 -0.3029401478009184 0.7581059932708741 1.0 0.0 0.0 100.0 50.0 250.0
-0.3929714329951345 -0.7801319331513604 0.9274579882621767 0.0 -2.220446049250313e-16 -1.0 100.0 50.0 250.0
-0.2717194326632558 -0.00134595936405274 0.2786009907722473 0.0 -2.220446049250313e-16 -1.0 100.0 50.0 250.0
-0.9373634227030813 -0.6432959408150872 0.2987629920244219 0.0 2.220446049250313e-16 1.0 100.0 50.0 250.0
-1.0820724137538016 -0.6196759611951074 0.25723898410797136 0.64273601770401 -0.7660880088806152 1.7010570926970009e-16 100.0 50.0 250.0
-0.8104185268693506 0.12954706245792313 0.9476199746131897 0.0 2.220446049250313e-16 1.0 100.0 50.0 250.0
-0.6815785311573087 -0.17521795338260737 0.2786009907722474 0.0 -2.220446049250313e-16 -1.0 100.0 50.0 250.0
-0.8480010249131261 -0.5308969438658914 0.9274579882621767 0.0 -2.220446049250313e-16 -1.0 100.0 50.0 250.0
-0.6132904209607183 0.12739706331623002 0.9274579882621765 0.0 -2.220446049250313e-16 -1.0 100.0 50.0 250.0
-0.1268874474280416 -0.27601004844772425 0.41940058767795574 -1.0 0.0 0.0 100.0 50.0 250.0
-0.2673494287245809 -0.2964675471769531 0.9274579882621766 0.0 -2.220446049250313e-16 -1.0 100.0 50.0 250.0
-0.10838241059713949 -0.14785395270454493 0.40785988420248037 0.0 0.3826920092105863 -0.9238759875297547 100.0 50.0 250.0
-1.027915424894625 0.05773803883922485 0.2786009907722473 0.0 -2.220446049250313e-16 -1.0 100.0 50.0 250.0
-1.2786824174635947 -0.021931943355675665 0.27860099077224737 0.0 -2.220446049250313e-16 -1.0 100.0 50.0 250.0
-0.4595404334776937 -0.7788479596959313 0.27860099077224754 0.0 -2.220446049250313e-16 -1.0 100.0 50.0 250.0
-0.5350714244359075 -0.541519951878663 0.8801399767398836 -0.6427369713783264 -0.766086995601654 1.7010548427657347e-16 100.0 50.0 250.0
-1.364401406835848 0.19338807755840204 0.20827999711036682 -0.7617080211639404 0.6392359733581543 0.10572499781846986 100.0 50.0 250.0
-0.11896944720678915 -0.15914395159351424 0.9274579882621765 0.0 2.220446049250313e-16 1.0 100.0 50.0 250.0
-0.45565242249899496 -0.5349429518567285 0.9476199746131899 0.0 2.220446049250313e-16 1.0 100.0 50.0 250.0
-0.25699145276480306 -0.5641379476176461 0.2786009907722475 0.0 -2.220446049250313e-16 -1.0 100.0 50.0 250.0
-1.0059444226735175 -0.6210639447556695 0.9476199746131899 0.0 2.220446049250313e-16 1.0 100.0 50.0 250.0
-1.417263454984957 -0.3116847470985611 0.9222529828548433 -1.0 0.0 0.0 100.0 50.0 250.0
-1.417263454984957 -0.26710354989635554 0.6223429888486863 -1.0 0.0 0.0 100.0 50.0 250.0
-1.3406434126608908 0.10913905793559953 0.9476199746131897 0.0 2.220446049250313e-16 1.0 100.0 50.0 250.0
-0.45105443079405416 -0.7332739502774438 0.2987629920244219 0.0 2.220446049250313e-16 1.0 100.0 50.0 250.0
-0.1268874474280416 -0.02901693886386958 0.7949999868869781 -1.0 0.0 0.0 100.0 50.0 250.0
-0.4031424291842519 -0.01732694810497376 0.2987629920244217 0.0 2.220446049250313e-16 1.0 100.0 50.0 250.0
-1.397101409029299 -0.5493359536515435 0.6241199821233752 1.0 0.0 0.0 100.0 50.0 250.0
-0.44877342064314474 -0.04589795774089889 0.8772099912166595 -0.6427369713783264 0.766086995601654 -1.7010548427657347e-16 100.0 50.0 250.0
-0.1268874474280416 0.10694206053150102 0.9169209897518158 -1.0 0.0 0.0 100.0 50.0 250.0
-0.22746045072012533 0.14636105591190252 0.5775279849767685 -0.6427299976348877 0.7660930156707764 4.8365600376318664e-06 100.0 50.0 250.0
-0.5418274321072637 0.09098804289234086 0.9476199746131897 0.0 2.220446049250313e-16 1.0 100.0 50.0 250.0
-1.1217224367373526 -0.04635595983135299 0.8637380003929138 -0.6427350044250488 -0.7660880088806152 1.7010570926970009e-16 100.0 50.0 250.0
-0.6356974311583578 -0.7383339375840386 0.9274579882621767 0.0 -2.220446049250313e-16 -1.0 100.0 50.0 250.0
-0.10672540147238363 0.1412720411433021 0.7744989991188049 1.0 0.0 0.0 100.0 50.0 250.0
-0.8573558248990117 -0.022759941278572837 0.9274579882621765 0.0 -2.220446049250313e-16 -1.0 100.0 50.0 250.0
-0.9957274265997945 -0.6605099410401544 0.27860099077224754 0.0 -2.220446049250313e-16 -1.0 100.0 50.0 250.0
-1.1720514364951193 -0.3264261175529918 0.2786009907722474 0.0 -2.220446049250313e-16 -1.0 100.0 50.0 250.0
-0.6159764297717153 -0.38038164830076293 0.9476199746131898 0.0 2.220446049250313e-16 1.0 100.0 50.0 250.0
-1.1567604311221182 -0.7056429356919488 0.9476199746131899 0.0 2.220446049250313e-16 1.0 100.0 50.0 250.0
-0.26248443801336874 0.1163090496672432 0.9274579882621765 0.0 -2.220446049250313e-16 -1.0 100.0 50.0 250.0
-0.9572964229100286 -0.5579929471598825 0.9274579882621767 0.0 -2.220446049250313e-16 -1.0 100.0 50.0 250.0
-0.10672540147238363 -0.29269174939262466 0.8814570009708406 1.0 0.0 0.0 100.0 50.0 250.0
-0.10672540147238363 -0.4278845459805687 0.9058929979801179 1.0 0.0 0.0 100.0 50.0 250.0
-0.1268874474280416 0.02685004764926835 0.8955319821834564 -1.0 0.0 0.0 100.0 50.0 250.0
-0.23432541568213094 -0.80042093700039 0.5118391886353495 -0.6427279710769653 -0.7660940289497375 7.226889808289659e-07 100.0 50.0 250.0
-0.538168422173792 -0.1371149540530403 0.9476199746131897 0.0 2.220446049250313e-16 1.0 100.0 50.0 250.0
-0.43017242033415426 -0.7844449550496301 0.2987629920244219 0.0 2.220446049250313e-16 1.0 100.0 50.0 250.0
-1.304867453169161 -0.8455219537602624 0.9476199746131899 0.0 2.220446049250313e-16 1.0 100.0 50.0 250.0
-1.0017414309495032 -0.2494935438619813 0.2987629920244218 0.0 2.220446049250313e-16 1.0 100.0 50.0 250.0
-1.058494425606066 -0.11372394567596522 0.29876299202442175 0.0 2.220446049250313e-16 1.0 100.0 50.0 250.0
-0.2473834224455892 -0.12366594081985549 0.9476199746131897 0.0 2.220446049250313e-16 1.0 100.0 50.0 250.0
-0.1268874474280416 -0.4526689470397195 0.4143540859222413 -1.0 0.0 0.0 100.0 50.0 250.0
-1.1665304370635092 -0.6197209328995904 0.9274579882621767 0.0 -2.220446049250313e-16 -1.0 100.0 50.0 250.0
-0.9181194223874151 -0.3615668461309631 0.9476199746131898 0.0 2.220446049250313e-16 1.0 100.0 50.0 250.0
-0.1948474117034017 -0.8335419566022119 0.24096599221229575 -0.6427329778671265 -0.7660899758338928 -3.598119915868359e-07 100.0 50.0 250.0
-0.26138044078283895 -0.8027679592953881 0.9274579882621767 0.0 -2.220446049250313e-16 -1.0 100.0 50.0 250.0
-1.1981264420264304 0.017745050729636336 0.8468149900436401 0.0 -2.220446049250313e-16 -1.0 100.0 50.0 250.0
-1.1779684193842948 -0.4439789474593361 0.9274579882621766 0.0 -2.220446049250313e-16 -1.0 100.0 50.0 250.0
-0.3973354168646871 0.20419404202831193 0.9274579882621765 0.0 -2.220446049250313e-16 -1.0 100.0 50.0 250.0
-1.397101409029299 -0.06137793964016047 0.8420429825782776 1.0 0.0 0.0 100.0 50.0 250.0
-0.36515841562681783 -0.11504395013916091 0.9274579882621765 0.0 -2.220446049250313e-16 -1.0 100.0 50.0 250.0
-0.1780654259436666 -0.04723095601665572 0.9274579882621765 0.0 -2.220446049250313e-16 -1.0 100.0 50.0 250.0
-0.1268874474280416 -0.16830894058811263 0.8491069972515106 -1.0 0.0 0.0 100.0 50.0 250.0
-0.26735342223578085 -0.18793494707214442 0.2786009907722474 0.0 -2.220446049250313e-16 -1.0 100.0 50.0 250.0
-1.397101409029299 -0.29323774656521884 0.7205249816179277 1.0 0.0 0.0 100.0 50.0 250.0
-1.397101409029299 -0.11940495377647486 0.6003149896860123 1.0 0.0 0.0 100.0 50.0 250.0
-1.2029184170477927 -0.37013884714114265 0.9274579882621766 0.0 -2.220446049250313e-16 -1.0 100.0 50.0 250.0
-0.5207694240325033 -0.5535189480172357 0.8632339835166933 -0.6427369713783264 -0.766086995601654 1.7010548427657347e-16 100.0 50.0 250.0
-0.28131542284422506 -0.23188575065004435 0.2987629920244218 0.0 2.220446049250313e-16 1.0 100.0 50.0 250.0
-1.417263454984957 -0.18157495266067591 0.6973299831151963 -1.0 0.0 0.0 100.0 50.0 250.0
-1.0377254255526602 -0.6177729338990411 0.2786009907722475 0.0 -2.220446049250313e-16 -1.0 100.0 50.0 250.0
-1.1080344386809409 -0.6465369433747491 0.9476199746131899 0.0 2.220446049250313e-16 1.0 100.0 50.0 250.0
-0.1268874474280416 0.02685004764926835 0.8955319821834564 -1.0 0.0 0.0 100.0 50.0 250.0
-1.2781394191496909 -0.7696669370518884 0.5510215908288958 0.763670027256012 0.6404880285263062 -0.08113549649715437 100.0 50.0 250.0
-0.10672540147238363 -0.5655839413987359 0.5693425908684733 1.0 0.0 0.0 100.0 50.0 250.0
-0.6593804277890264 -0.06603395646679 0.9274579882621765 0.0 -2.220446049250313e-16 -1.0 100.0 50.0 250.0
-1.1755794354193747 0.22387102538478776 0.9476199746131897 0.0 2.220446049250313e-16 1.0 100.0 50.0 250.0
-0.1268874474280416 -0.219869946001645 0.3888671845197679 -1.0 0.0 0.0 100.0 50.0 250.0
-1.2223134406321585 -0.6765189439641198 0.9476199746131899 0.0 2.220446049250313e-16 1.0 100.0 50.0 250.0
-0.7745609285720526 -0.3616771482514103 0.8991529941558839 0.6427310109138489 -0.7660920023918152 1.7010659600731674e-16 100.0 50.0 250.0
-0.8996124335043966 -0.38207854783403483 0.2786009907722474 0.0 -2.220446049250313e-16 -1.0 100.0 50.0 250.0
-0.31895843822889913 0.023539039434317788 0.8622279763221741 0.6427369713783264 -0.766086995601654 1.7010548427657347e-16 100.0 50.0 250.0
-0.20406741578512777 0.11335104996097484 0.7737469971179962 0.6427459716796875 -0.7660790085792542 5.055389921717788e-07 100.0 50.0 250.0
-1.3128764100783408 0.10744104081523809 0.40103159099817276 -0.6427329778671265 -0.7660899758338928 2.44645998465667e-05 100.0 50.0 250.0
-0.7095128290765821 -0.4033641487942894 0.9274579882621766 0.0 -2.220446049250313e-16 -1.0 100.0 50.0 250.0
-0.5956224270575582 -0.5079849482165536 0.2786009907722474 0.0 -2.220446049250313e-16 -1.0 100.0 50.0 250.0
-1.1266624398940146 -0.23358954942094878 0.9476199746131898 0.0 2.220446049250313e-16 1.0 100.0 50.0 250.0
-0.10672540147238363 -0.2990597475902995 0.6375689804553987 1.0 0.0 0.0 100.0 50.0 250.0
-1.132668442320162 -0.6621199519025048 0.8709199726581576 0.6427310109138489 -0.7660920023918152 1.7010659600731674e-16 100.0 50.0 250.0
-1.1700634427779257 -0.24539734876024333 0.2987629920244218 0.0 2.220446049250313e-16 1.0 100.0 50.0 250.0
-0.5987284250968038 -0.02422094052898499 0.27860099077224737 0.0 -2.220446049250313e-16 -1.0 100.0 50.0 250.0
-1.2562924392931998 0.10601705604923173 0.8648449778556824 0.6427310109138489 0.7660920023918152 -1.7010659600731674e-16 100.0 50.0 250.0
-1.1223184235804617 -0.7045339614735803 0.9476199746131899 0.0 2.220446049250313e-16 1.0 100.0 50.0 250.0
-1.352004415582949 0.14026406699550537 0.2227339744567871 -0.6427839994430542 -0.7660470008850098 4.273510057845399e-05 100.0 50.0 250.0
-0.9612984277718603 -0.20524394965040293 0.2786009907722474 0.0 -2.220446049250313e-16 -1.0 100.0 50.0 250.0
-1.2433784373515189 -0.6722099453793725 0.9476199746131899 0.0 2.220446049250313e-16 1.0 100.0 50.0 250.0
-0.6988399245255529 -0.07070794409381953 0.27860099077224737 0.0 -2.220446049250313e-16 -1.0 100.0 50.0 250.0
-0.30893743712835897 -0.2558155477629861 0.2987629920244218 0.0 2.220446049250313e-16 1.0 100.0 50.0 250.0
-0.36736843664579977 -0.7626219362603387 0.9476199746131899 0.0 2.220446049250313e-16 1.0 100.0 50.0 250.0
-1.1936954327338278 -0.1258009493933876 0.9274579882621765 0.0 -2.220446049250313e-16 -1.0 100.0 50.0 250.0
-0.3056674369090139 -0.456549954472657 0.9476199746131899 0.0 2.220446049250313e-16 1.0 100.0 50.0 250.0
-1.3912134237998068 -0.267121043859597 0.9274579882621766 0.0 -2.220446049250313e-16 -1.0 100.0 50.0 250.0
-0.7263173267655908 -0.49540094739067153 0.9274579882621767 0.0 -2.220446049250313e-16 -1.0 100.0 50.0 250.0
-0.3032514222376882 -0.535230946599122 0.29876299202442186 0.0 2.220446049250313e-16 1.0 100.0 50.0 250.0
-0.26416943151884664 -0.5030249477015695 0.2786009907722474 0.0 -2.220446049250313e-16 -1.0 100.0 50.0 250.0
-1.3658614226096213 0.1856720774782934 0.0 0.0 -2.220446049250313e-16 -1.0 100.0 50.0 250.0
-1.397101409029299 -0.15895794039833155 0.4850686872377992 1.0 0.0 0.0 100.0 50.0 250.0
-0.4108564325087606 -0.08305494195091323 0.9274579882621765 0.0 -2.220446049250313e-16 -1.0 100.0 50.0 250.0
-0.14962644059591879 0.12337005430591508 0.9476199746131897 0.0 2.220446049250313e-16 1.0 100.0 50.0 250.0
-0.9946184225791036 -0.786707934795495 0.2926359921693804 0.0 -1.0 2.220446049250313e-16 100.0 50.0 250.0
-1.417263454984957 -0.2822921470390519 0.5861329883337022 -1.0 0.0 0.0 100.0 50.0 250.0
-0.23891443688803304 -0.884366956411477 0.9456470012664797 0.0 -1.0 2.220446049250313e-16 100.0 50.0 250.0
-1.397101409029299 0.015755060256842757 0.65864098072052 1.0 0.0 0.0 100.0 50.0 250.0
-1.0121604271643698 -0.09879894262420741 0.24505598843097692 0.6427379846572876 0.7660859823226929 -1.7010525928344686e-16 100.0 50.0 250.0
-1.397101409029299 -0.0702039570199211 0.8881059885025024 1.0 0.0 0.0 100.0 50.0 250.0
-0.9996544339173375 0.15455106192958756 0.9274579882621765 0.0 -2.220446049250313e-16 -1.0 100.0 50.0 250.0
-0.6248724230044423 -0.47189294999706344 0.9274579882621767 0.0 -2.220446049250313e-16 -1.0 100.0 50.0 250.0
-0.10672540147238363 -0.06203695839511947 0.910649985074997 1.0 0.0 0.0 100.0 50.0 250.0
-0.9480414309018194 -0.6370439500199517 0.9476199746131899 0.0 2.220446049250313e-16 1.0 100.0 50.0 250.0
-0.15201444108420004 -0.1780809432851036 0.9274579882621765 0.0 -2.220446049250313e-16 -1.0 100.0 50.0 250.0
-0.6396124281399785 -0.45381294643747416 0.23317798972129836 -0.6427350044250488 -0.7660890221595764 1.701059342628267e-16 100.0 50.0 250.0
-0.8708744265549718 -0.7292049497948846 0.9274579882621767 0.0 -2.220446049250313e-16 -1.0 100.0 50.0 250.0
-0.3777494199984609 -0.3110949479626378 0.2987629920244218 0.0 2.220446049250313e-16 1.0 100.0 50.0 250.0
-0.587611428689295 -0.4816819549189767 0.2987629920244218 0.0 2.220446049250313e-16 1.0 100.0 50.0 250.0
-1.1355244286768973 -0.4871639431105813 0.2786009907722474 0.0 -2.220446049250313e-16 -1.0 100.0 50.0 250.0
-0.10672540147238363 -0.8106799394475183 0.8718129992485049 1.0 0.0 0.0 100.0 50.0 250.0
-0.4839254387133657 -0.16496695285904017 0.2987629920244218 0.0 2.220446049250313e-16 1.0 100.0 50.0 250.0
-0.13130844314032186 -0.8355439574109277 0.9274579882621767 0.0 -2.220446049250313e-16 -1.0 100.0 50.0 250.0
-0.4337244399302541 -0.7722399503575524 0.9274579882621767 0.0 -2.220446049250313e-16 -1.0 100.0 50.0 250.0
-1.0284254320376456 -0.5068929464207849 0.2987629920244218 0.0 2.220446049250313e-16 1.0 100.0 50.0 250.0
-0.49774543125563253 -0.08723394280540553 0.29876299202442175 0.0 2.220446049250313e-16 1.0 100.0 50.0 250.0
-0.3311834402792989 -0.2957373493002613 0.9274579882621766 0.0 -2.220446049250313e-16 -1.0 100.0 50.0 250.0
-0.28762943227224935 0.04982406193149491 0.8851870000362396 0.6427369713783264 -0.766086995601654 1.7010548427657347e-16 100.0 50.0 250.0
-1.2390564151518881 0.05676004582775024 0.2786009907722473 0.0 -2.220446049250313e-16 -1.0 100.0 50.0 250.0
-0.3776634402983724 0.010719063819769892 0.21811500191688543 0.0 -2.220446049250313e-16 -1.0 100.0 50.0 250.0
-1.0270904370062888 0.15943706327808305 0.9274579882621765 0.0 -2.220446049250313e-16 -1.0 100.0 50.0 250.0
-0.2850174375289022 -0.7059539527283868 0.27860099077224754 0.0 -2.220446049250313e-16 -1.0 100.0 50.0 250.0
-0.21562541205816854 0.15629005724323186 0.560332790017128 -0.6427299976348877 0.7660930156707764 4.8365600376318664e-06 100.0 50.0 250.0
-0.6372124247663556 0.10793206387889787 0.9476199746131897 0.0 2.220446049250313e-16 1.0 100.0 50.0 250.0
-1.397101409029299 -0.6776869565831384 0.5371672883629801 1.0 0.0 0.0 100.0 50.0 250.0
-0.8221006274633943 -0.639090952335473 0.29876299202442186 0.0 2.220446049250313e-16 1.0 100.0 50.0 250.0
-0.23658943850927938 0.1387010543955604 0.7069559842348099 -0.6427299976348877 0.7660930156707764 -7.3588698798512584e-06 100.0 50.0 250.0
-1.417263454984957 -0.6919669479714593 0.7990659773349764 -1.0 0.0 0.0 100.0 50.0 250.0
-0.18858242709570516 -0.8265709549771508 0.8508079946041109 0.7660490274429321 -0.6427270174026489 0.008403570391237878 100.0 50.0 250.0
-0.6086534329169332 -0.44232795095312205 0.2786009907722474 0.0 -2.220446049250313e-16 -1.0 100.0 50.0 250.0
-1.417263454984957 0.052370044530753224 0.5914249867200851 -1.0 0.0 0.0 100.0 50.0 250.0
-1.1402334340327323 -0.004788962064858404 0.21811500191688543 0.0 -2.220446049250313e-16 -1.0 100.0 50.0 250.0
-1.417263454984957 -0.5626139462577066 0.8955599963665011 -1.0 0.0 0.0 100.0 50.0 250.0
-0.27342743356161703 -0.16386395400631026 0.9274579882621765 0.0 -2.220446049250313e-16 -1.0 100.0 50.0 250.0
-0.4370974369757711 -0.3611217484461029 0.9274579882621766 0.0 -2.220446049250313e-16 -1.0 100.0 50.0 250.0
-1.2558574147933066 -0.34550754713135556 0.9274579882621766 0.0 -2.220446049250313e-16 -1.0 100.0 50.0 250.0
-0.19231242616110433 0.12321204239261535 0.3082739859819412 0.6427320241928101 -0.766090989112854 -9.023229722345574e-06 100.0 50.0 250.0
-1.1448604233973563 -0.7145939440118035 0.9476199746131899 0.0 2.220446049250313e-16 1.0 100.0 50.0 250.0
-0.8448062308543264 -0.3483648475842437 0.2987629920244218 0.0 2.220446049250313e-16 1.0 100.0 50.0 250.0
-0.6902069293373166 -0.32177725794034806 0.2786009907722474 0.0 -2.220446049250313e-16 -1.0 100.0 50.0 250.0
-0.8040152296834527 -0.6928869456635675 0.27860099077224754 0.0 -2.220446049250313e-16 -1.0 100.0 50.0 250.0
-1.397101409029299 -0.5923319429742059 0.5925279855728152 1.0 0.0 0.0 100.0 50.0 250.0
-0.8624374263399183 -0.08466794794666377 0.27860099077224737 0.0 -2.220446049250313e-16 -1.0 100.0 50.0 250.0
-0.8555114262216627 -0.43038594430553523 0.2987629920244218 0.0 2.220446049250313e-16 1.0 100.0 50.0 250.0
-0.27180243213110555 -0.8700549275265893 0.9476199746131899 0.0 2.220446049250313e-16 1.0 100.0 50.0 250.0
-0.9974364258759557 -0.7764179379330834 0.2987629920244219 0.0 2.220446049250313e-16 1.0 100.0 50.0 250.0
-0.9575744338744222 -0.23493154799806681 0.2987629920244218 0.0 2.220446049250313e-16 1.0 100.0 50.0 250.0
-0.46719441492491354 -0.28776024734842387 0.2987629920244218 0.0 2.220446049250313e-16 1.0 100.0 50.0 250.0
-1.337169415544802 -0.4976559550152977 0.9476199746131899 0.0 2.220446049250313e-16 1.0 100.0 50.0 250.0
-0.2938374348395406 0.03955805593860551 0.9274579882621765 0.0 -2.220446049250313e-16 -1.0 100.0 50.0 250.0
-1.2759324379675925 -0.7120989531861505 0.2987629920244219 0.0 2.220446049250313e-16 1.0 100.0 50.0 250.0
-1.417263454984957 -0.5189519495354852 0.7720919847488406 -1.0 0.0 0.0 100.0 50.0 250.0
-1.417263454984957 -0.7785759538994989 0.6336199939250948 -1.0 0.0 0.0 100.0 50.0 250.0
