ply
format ascii 1.0
element vertex 402
property float x
property float y
property float z
property float nx
property float ny
property float nz
property uchar red
property uchar green
property uchar blue
end_header
1.2003180055307565 1.0719629106456745 0.4272819906473162 -0.7071049809455872 -0.7071080207824707 1.5700952111396453e-16 100.0 50.0 250.0
1.9820300011324106 1.0179469165737143 0.9135639965534212 -0.5382310152053833 0.8427519798278809 -0.00875561963766832 100.0 50.0 250.0
1.0816050140546976 1.9836509106094349 1.0951240062713623 0.0 -2.220446049250313e-16 -1.0 100.0 50.0 250.0
1.1189420191930948 1.9362769005233753 1.0951240062713623 0.0 -2.220446049250313e-16 -1.0 100.0 50.0 250.0
1.2170680133985696 1.0552129027778614 0.5343472845852377 -0.7071049809455872 -0.7071080207824707 1.568210163306998e-09 100.0 50.0 250.0
1.0253599850820718 1.058524894469451 1.1399520039558413 -0.8105049729347229 -0.5857319831848145 -1.0179899459898504e-08 100.0 50.0 250.0
1.136156019418162 1.2607989189559927 1.1720479726791384 0.0 2.220446049250313e-16 1.0 100.0 50.0 250.0
2.0156990258382974 1.958510893338393 1.0951240062713623 0.0 -2.220446049250313e-16 -1.0 100.0 50.0 250.0
1.2863320080923257 2.072386878483962 1.0951240062713623 0.0 -2.220446049250313e-16 -1.0 100.0 50.0 250.0
1.0379310218977151 1.7068999139005654 1.1720479726791382 0.0 2.220446049250313e-16 1.0 100.0 50.0 250.0
2.3308320014166055 1.7901899096900928 1.1720479726791382 0.0 2.220446049250313e-16 1.0 100.0 50.0 250.0
0.9583550064253031 1.448518711083602 1.1720479726791382 0.0 2.220446049250313e-16 1.0 100.0 50.0 250.0
2.3813500373052774 1.7987339076930988 1.1654619574546814 0.9273620247840881 0.37416398525238037 9.311789730977705e-08 100.0 50.0 250.0
1.5146950153993783 2.275956886761855 1.098015010356903 -0.17973700165748596 0.9837149977684021 -2.184286080383129e-16 100.0 50.0 250.0
1.7628120152639566 1.536497707420062 1.1720479726791382 0.0 2.220446049250313e-16 1.0 100.0 50.0 250.0
1.2734330265211282 1.1544579145843494 0.6019325871020558 0.7068910002708435 0.7068910002708435 -0.024721100926399387 100.0 50.0 250.0
1.7179262122499166 1.667405906074714 1.1720479726791382 0.0 2.220446049250313e-16 1.0 100.0 50.0 250.0
1.6412847141163764 0.8162259039813986 1.1720479726791384 0.0 2.220446049250313e-16 1.0 100.0 50.0 250.0
2.3148670165228067 1.7320509133274071 1.1720479726791382 0.0 2.220446049250313e-16 1.0 100.0 50.0 250.0
1.5716340138005434 1.166643905394744 1.1720479726791384 0.0 2.220446049250313e-16 1.0 100.0 50.0 250.0
1.6869372135388074 2.064017909520339 1.1720479726791382 0.0 2.220446049250313e-16 1.0 100.0 50.0 250.0
1.2055550186323343 1.1507839140827167 0.6574907898902895 -0.7070950269699097 0.7071179747581482 -1.5701173134056128e-16 100.0 50.0 250.0
1.644664713776332 1.7244139043027866 1.0951240062713623 0.0 -2.220446049250313e-16 -1.0 100.0 50.0 250.0
1.1882160274671731 1.135414916032027 0.8991049826145174 0.0 -2.220446049250313e-16 -1.0 100.0 50.0 250.0
1.1777310042070566 1.163061904662322 1.0482859909534457 0.7930300235748291 0.6091830134391785 -7.322171445129951e-10 100.0 50.0 250.0
2.02601200029127 1.9054679152900684 0.4479129910469055 -0.7065849900245667 -0.7066059708595276 -0.038024500012397607 100.0 50.0 250.0
1.4221260069297967 1.546569506579112 1.1720479726791382 0.0 2.220446049250313e-16 1.0 100.0 50.0 250.0
1.4394600211071191 1.3854479072029104 1.1720479726791382 0.0 2.220446049250313e-16 1.0 100.0 50.0 250.0
1.203605022876185 1.1488329050476063 0.04969000816345237 -0.7071070075035095 0.7071070075035095 1.988820076787976e-05 100.0 50.0 250.0
2.0431360273050485 0.8387168822223654 1.1528959870338442 0.506181001663208 -0.8624280095100403 -1.0838100003589977e-08 100.0 50.0 250.0
1.243548002688807 1.8515269038612354 0.7856709808111191 0.7071040272712708 -0.7071040272712708 0.002865239977836766 100.0 50.0 250.0
1.1955280272649942 1.1407568929130543 0.6098247859627011 -0.7070950269699097 0.7071179747581482 1.956410051191357e-05 100.0 50.0 250.0
2.0377350120233713 0.8525428948337546 1.1720479726791384 0.0 2.220446049250313e-16 1.0 100.0 50.0 250.0
1.1662600009130655 1.9317019162113178 0.26666897535324097 -0.7066919803619385 0.7075219750404358 -1.799080018842936e-05 100.0 50.0 250.0
1.2298830120252786 1.1751129207546223 0.4487079828977587 -0.7071070075035095 0.7071070075035095 -1.5700929612083792e-16 100.0 50.0 250.0
1.2718360094713388 1.0487189171249378 0.005505979061126931 0.7071070075035095 -0.7071070075035095 1.5700929612083792e-16 100.0 50.0 250.0
2.051177021710795 2.0753159103328693 1.0951240062713623 0.0 -2.220446049250313e-16 -1.0 100.0 50.0 250.0
1.1590540079759775 1.6855769035751331 1.0951240062713623 0.0 -2.220446049250313e-16 -1.0 100.0 50.0 250.0
2.2932749955343423 1.9049478945667255 1.1720479726791382 0.0 2.220446049250313e-16 1.0 100.0 50.0 250.0
1.922249016015452 1.4330478039915076 1.0951240062713623 0.0 -2.220446049250313e-16 -1.0 100.0 50.0 250.0
1.2198270229982553 1.0524538931781757 0.6493707895278933 -0.7071080207824707 -0.7071049809455872 -8.724528417258835e-10 100.0 50.0 250.0
1.0466890303777872 1.0739008960659018 1.0951240062713625 0.0 -2.220446049250313e-16 -1.0 100.0 50.0 250.0
2.0127209989713846 1.6030658063823693 1.1720479726791382 0.0 2.220446049250313e-16 1.0 100.0 50.0 250.0
1.8238470076011835 0.8293419060642233 1.1720479726791384 0.0 2.220446049250313e-16 1.0 100.0 50.0 250.0
2.030643012969416 1.0526779172355643 0.9404569864273074 -0.6091539859771729 0.7930520176887512 -1.760929219526977e-16 100.0 50.0 250.0
1.803551015107554 2.027813929074477 1.1720479726791382 0.0 2.220446049250313e-16 1.0 100.0 50.0 250.0
2.132270005195063 1.1285699186260212 0.7898229807615282 0.7070840001106262 0.7071290016174316 2.735339938839032e-08 100.0 50.0 250.0
1.0640410153555093 1.4945187074477186 1.0951240062713623 0.0 -2.220446049250313e-16 -1.0 100.0 50.0 250.0
1.7428322105096994 1.5529660088355055 1.0951240062713623 0.0 -2.220446049250313e-16 -1.0 100.0 50.0 250.0
2.1139640180753885 1.8917558965618122 1.079807996749878 0.7071070075035095 -0.7071070075035095 2.701289931088773e-07 100.0 50.0 250.0
2.05936702772848 1.1710679111415851 0.5593789871782067 -0.7068899869918823 0.7068910002708435 -0.024721100926399387 100.0 50.0 250.0
1.235994008033198 1.8555908975536335 0.8636309802532196 -0.7071179747581482 -0.7070959806442261 1.8173999706207387e-05 100.0 50.0 250.0
1.167525020091456 1.8897169110710133 0.8991049826145172 0.0 -2.220446049250313e-16 -1.0 100.0 50.0 250.0
1.0313749878095804 1.4474040073687544 1.1720479726791382 0.0 2.220446049250313e-16 1.0 100.0 50.0 250.0
1.825812008826655 2.0915848789150226 1.0197289884090424 -0.23575100302696228 -0.9717820286750793 0.007792700082063891 100.0 50.0 250.0
2.3619469968961893 1.2774169025356283 1.0951240062713623 0.0 -2.220446049250313e-16 -1.0 100.0 50.0 250.0
1.0168740122007547 1.6633859006101601 1.1720479726791382 0.0 2.220446049250313e-16 1.0 100.0 50.0 250.0
2.1233750252412973 1.9567689177925098 0.6381121873855591 0.7072179913520813 0.7069960236549377 -1.5698465275602874e-16 100.0 50.0 250.0
0.9139630167173564 1.6137669039303773 1.1720479726791382 0.0 2.220446049250313e-16 1.0 100.0 50.0 250.0
2.062674012629908 1.0298198935920704 0.6897949874401095 -0.7071070075035095 -0.7071070075035095 4.451460246436724e-09 100.0 50.0 250.0
1.5402680157112298 1.6939159063035958 1.1720479726791382 0.0 2.220446049250313e-16 1.0 100.0 50.0 250.0
2.1310650078939615 1.088642912858199 0.20908197760581992 0.7071070075035095 -0.7071070075035095 1.5700929612083792e-16 100.0 50.0 250.0
2.0013240246462045 1.0305409011775961 1.0496219992637636 -0.5382199883460999 0.8427339792251587 0.010890100151300243 100.0 50.0 250.0
2.1066920129942117 1.1541479108268726 0.20223298668861406 0.7070919871330261 0.7071210145950317 -2.1401699996361128e-05 100.0 50.0 250.0
1.654236153828573 1.8558909175331104 1.1720479726791382 0.0 2.220446049250313e-16 1.0 100.0 50.0 250.0
1.639259314759296 0.9276969013149252 1.0951240062713625 0.0 -2.220446049250313e-16 -1.0 100.0 50.0 250.0
1.2075980274366556 2.151457923405837 1.105717957019806 -0.5858049988746643 0.8104519844055176 -1.7995649068803079e-16 100.0 50.0 250.0
1.549392011611384 1.0205829021865835 1.1720479726791384 0.0 2.220446049250313e-16 1.0 100.0 50.0 250.0
1.664686584042978 2.1201878962451923 1.0951240062713623 0.0 -2.220446049250313e-16 -1.0 100.0 50.0 250.0
1.3977070121454416 2.256330924981307 1.1516429781913757 -0.32717400789260864 0.9449639916419983 -1.715080176759363e-09 100.0 50.0 250.0
1.9566930203127084 1.2036039111549368 1.0951240062713625 0.0 -2.220446049250313e-16 -1.0 100.0 50.0 250.0
1.2071630029367624 1.884421902650069 0.4335149824619293 -0.7071070075035095 -0.7071070075035095 2.2406000425846863e-05 100.0 50.0 250.0
1.516547021119517 2.096088903897475 1.011929988861084 0.22957800328731537 -0.9732540249824524 -0.00835502985864856 100.0 50.0 250.0
0.9618270365881144 1.754811900609206 1.0951240062713623 0.0 -2.220446049250313e-16 -1.0 100.0 50.0 250.0
1.3231740264581857 1.106637912743758 0.7688709795475008 0.7071040272712708 0.7071040272712708 0.0028464000206439117 100.0 50.0 250.0
2.0672300128626047 1.1794309196407307 0.9099679887294772 -0.7066640257835388 0.7066439986228943 0.03578070178627952 100.0 50.0 250.0
1.902244013397616 0.9025739011699667 1.0951240062713625 0.0 -2.220446049250313e-16 -1.0 100.0 50.0 250.0
1.052727040498179 1.3507419106895437 1.0397169888019564 -0.9780150055885315 -0.20625600218772888 -0.0307541005313396 100.0 50.0 250.0
2.2684140174078165 1.8087109205657947 1.0951240062713623 0.0 -2.220446049250313e-16 -1.0 100.0 50.0 250.0
1.2519270150350748 1.0288098928863516 0.7856159806251528 0.7071070075035095 -0.7071070075035095 1.5700929612083792e-16 100.0 50.0 250.0
2.0925030080961404 1.8427699086601246 1.0951240062713623 0.0 -2.220446049250313e-16 -1.0 100.0 50.0 250.0
2.123922017066401 1.0815009055072775 0.9644189774990084 0.7071070075035095 -0.7071070075035095 1.5700929612083792e-16 100.0 50.0 250.0
1.17843001767866 1.093850898497771 0.5241138860583308 -0.7071080207824707 -0.7071049809455872 1.570088461345847e-16 100.0 50.0 250.0
2.301091012208384 1.6049685058528889 1.0951240062713623 0.0 -2.220446049250313e-16 -1.0 100.0 50.0 250.0
1.7878820119785486 1.976684915774535 1.0951240062713623 0.0 -2.220446049250313e-16 -1.0 100.0 50.0 250.0
1.2000960080312906 1.7901859161788929 1.0951240062713623 0.0 -2.220446049250313e-16 -1.0 100.0 50.0 250.0
1.303443011491221 0.9958769259387961 1.055201977491379 -0.5269020199775696 -0.8498179912567139 -0.013578100129961778 100.0 50.0 250.0
2.14819302841894 1.1126479086811054 0.6948539838194849 0.7071070075035095 0.7071070075035095 4.8050597485123064e-09 100.0 50.0 250.0
2.0391140250848947 1.985252904647063 0.17643699049949646 -0.7070779800415039 0.7071359753608704 -1.551840068729929e-05 100.0 50.0 250.0
1.275676008908671 1.0525599000389088 0.3793359845876696 0.7071189880371094 -0.7070940136909485 -2.333260090365672e-05 100.0 50.0 250.0
1.9444480209039865 2.0410798964435566 1.1720479726791382 0.0 2.220446049250313e-16 1.0 100.0 50.0 250.0
2.070962008683604 2.0987668809825886 1.0951240062713623 0.0 -2.220446049250313e-16 -1.0 100.0 50.0 250.0
2.0394509999441324 1.132161903136443 0.2906249761581423 -0.7053470015525818 0.7053470015525818 -0.07050339877605453 100.0 50.0 250.0
1.069757994859141 1.296353909128379 1.013376981019974 -0.9412760138511658 -0.3376370072364807 6.162030331332283e-05 100.0 50.0 250.0
1.4044170050310312 0.942004936688613 1.0664539933204653 -0.43469399213790894 -0.9005759954452515 -0.0018431999487800387 100.0 50.0 250.0
1.2671840159582315 1.4337824088866225 1.0951240062713623 0.0 -2.220446049250313e-16 -1.0 100.0 50.0 250.0
1.7047903133916078 1.214841919892501 1.0951240062713625 0.0 -2.220446049250313e-16 -1.0 100.0 50.0 250.0
2.2493540017294107 1.4466749084527006 1.0078549981117249 -0.992251992225647 0.12423600256443024 0.0011136500397696816 100.0 50.0 250.0
1.2563560275720773 2.003575908892821 0.9633149802684784 0.7071070075035095 0.7071070075035095 -1.5700929612083792e-16 100.0 50.0 250.0
1.116694030015391 1.2683419165546408 1.078000992536545 0.891700029373169 0.45260000228881836 -0.00494890008121739 100.0 50.0 250.0
0.9717240302251994 1.241311895602416 1.0951240062713625 0.0 -2.220446049250313e-16 -1.0 100.0 50.0 250.0
1.2063560156511484 1.885226893180083 0.06716001033782959 -0.7071229815483093 -0.7070900201797485 3.1170300191412293e-06 100.0 50.0 250.0
2.125154015271586 1.9029458937580097 0.08594900369644165 0.7071070075035095 -0.7071070075035095 2.511619926941726e-07 100.0 50.0 250.0
1.6672803635137496 1.915091919654082 1.0951240062713623 0.0 -2.220446049250313e-16 -1.0 100.0 50.0 250.0
1.2156850068258462 1.9811269221240986 0.5694971866905689 -0.7072179913520813 0.7069960236549377 -1.5698465275602874e-16 100.0 50.0 250.0
1.1608180074381051 1.7732159075672138 1.1720479726791382 0.0 2.220446049250313e-16 1.0 100.0 50.0 250.0
1.1802740065740762 1.0728429136211386 1.1720479726791384 0.0 2.220446049250313e-16 1.0 100.0 50.0 250.0
1.2776690094160257 1.1180519041950214 0.19719099998474143 0.7039589881896973 0.7039600014686584 -0.09424430131912247 100.0 50.0 250.0
2.3737270204710184 1.5631201071078291 1.1720479726791382 0.0 2.220446049250313e-16 1.0 100.0 50.0 250.0
2.139364001004618 1.8900499222213734 1.1720479726791382 0.0 2.220446049250313e-16 1.0 100.0 50.0 250.0
0.9824080435918986 1.324143904202651 1.0951240062713623 0.0 -2.220446049250313e-16 -1.0 100.0 50.0 250.0
1.6251198133813558 0.923547881596755 1.053498983383179 0.06032780185341835 0.9981780052185059 -0.0013927599648015927 100.0 50.0 250.0
1.28262102290861 1.8930359063083637 0.8993009924888611 0.7069879770278931 -0.7069879770278931 0.018337199464440502 100.0 50.0 250.0
1.1182370154546915 1.8473569033081043 0.9017019867897034 -0.8733950257301331 0.48698899149894714 -0.00475753005594026 100.0 50.0 250.0
1.1755910186456857 1.9029458937580097 0.8991049826145172 0.0 -2.220446049250313e-16 -1.0 100.0 50.0 250.0
0.9960380165266215 1.3769329068595877 1.1720479726791382 0.0 2.220446049250313e-16 1.0 100.0 50.0 250.0
1.7887540130304513 0.905082899087142 1.0846449732780459 0.20617200434207916 -0.9780300259590149 -0.030817899852990886 100.0 50.0 250.0
1.5943548126506029 2.2710868892604816 1.0951240062713623 0.0 -2.220446049250313e-16 -1.0 100.0 50.0 250.0
1.6950638151156125 1.503408307150971 1.1720479726791382 0.0 2.220446049250313e-16 1.0 100.0 50.0 250.0
1.147310015408915 1.4637721059257498 1.0951240062713623 0.0 -2.220446049250313e-16 -1.0 100.0 50.0 250.0
1.3678180246042428 0.9950499114925375 1.0552719831466677 0.4007759988307953 0.9144399762153625 0.05637110024690608 100.0 50.0 250.0
1.1519120304273782 1.4663435061807146 1.1720479726791382 0.0 2.220446049250313e-16 1.0 100.0 50.0 250.0
1.9677190153288064 0.9721468863422384 0.9922449886798861 0.4651400148868561 -0.8847699761390686 0.028754999861121375 100.0 50.0 250.0
2.0181760160612283 1.472171406202983 1.1720479726791382 0.0 2.220446049250313e-16 1.0 100.0 50.0 250.0
1.2016540138410745 1.146882909291457 0.893767982721329 -0.7070950269699097 0.7071179747581482 1.6318400695798824e-08 100.0 50.0 250.0
2.2831889955686746 1.4620027085179796 1.0526819825172424 0.9962120056152344 -0.08695270121097565 -0.0011030599707737372 100.0 50.0 250.0
2.0620140103983102 1.0304798958236683 0.23247799277305625 -0.7071070075035095 -0.7071070075035095 -1.4474699504084086e-08 100.0 50.0 250.0
2.1313030092405496 1.0888818976814258 0.5259785875678065 0.7071070075035095 -0.7071070075035095 1.5700929612083792e-16 100.0 50.0 250.0
1.4850490210937677 1.8074878928596485 1.0951240062713623 0.0 -2.220446049250313e-16 -1.0 100.0 50.0 250.0
2.009376016108912 1.1617719111377707 1.0951240062713625 0.0 -2.220446049250313e-16 -1.0 100.0 50.0 250.0
2.21280604287855 1.8111598966056812 1.052504986524582 0.8937209844589233 0.4486199915409088 -0.0018848599866033596 100.0 50.0 250.0
1.3427420227216897 1.3351289061243048 1.0951240062713623 0.0 -2.220446049250313e-16 -1.0 100.0 50.0 250.0
1.1748190192865549 1.1013979194099415 0.6928489878773691 -0.37070798873901367 -0.9287490248680115 2.0622371030132569e-16 100.0 50.0 250.0
1.8418330071853815 2.2786228833133686 1.1273170113563538 0.22981800138950348 0.9732339978218079 -4.899690203171491e-09 100.0 50.0 250.0
2.2188850013899026 1.8647669134075153 1.1720479726791382 0.0 2.220446049250313e-16 1.0 100.0 50.0 250.0
1.5458130134629426 1.1404109177524557 1.1720479726791384 0.0 2.220446049250313e-16 1.0 100.0 50.0 250.0
2.115826007573527 1.5152031275788655 1.0951240062713623 0.0 -2.220446049250313e-16 -1.0 100.0 50.0 250.0
0.8999090163397013 1.3278719065124502 1.1058709621429443 0.0 -2.220446049250313e-16 -1.0 100.0 50.0 250.0
2.0361530153440652 1.4488174048597326 1.1720479726791382 0.0 2.220446049250313e-16 1.0 100.0 50.0 250.0
2.132259008138102 1.9100509164268482 0.004862964153289795 0.7071070075035095 -0.7071070075035095 1.5700929612083792e-16 100.0 50.0 250.0
2.162451025693339 1.4547518072063437 1.0951240062713623 0.0 -2.220446049250313e-16 -1.0 100.0 50.0 250.0
2.154133018700999 1.8500808951789844 1.0741649866104126 -0.8427119851112366 -0.538254976272583 0.01084230002015841 100.0 50.0 250.0
2.2046800224470315 1.220510917657088 0.901960998773575 0.4666900038719177 0.8844209909439087 -0.0004503630043475059 100.0 50.0 250.0
1.2694500057386575 1.878782915824126 0.857591986656189 0.7069879770278931 -0.7069879770278931 0.018337199464440502 100.0 50.0 250.0
1.0429180233167825 1.8952399072582233 1.1720479726791382 0.0 2.220446049250313e-16 1.0 100.0 50.0 250.0
1.2603060273813425 1.8597919223243702 1.1720479726791382 0.0 2.220446049250313e-16 1.0 100.0 50.0 250.0
1.012645003049296 1.7189579037363045 1.1720479726791382 0.0 2.220446049250313e-16 1.0 100.0 50.0 250.0
2.012375023810786 1.9585149166519153 0.4823879897594452 -0.7070950269699097 0.7071189880371094 -1.9831799363758034e-05 100.0 50.0 250.0
2.083885010926646 1.8661638972694385 0.2468899786472321 -0.7039589881896973 -0.7039589881896973 -0.09424430131912216 100.0 50.0 250.0
1.755410913972777 1.6531999138528812 1.0951240062713623 0.0 -2.220446049250313e-16 -1.0 100.0 50.0 250.0
1.9273460178064523 1.028714912884902 1.0951240062713625 0.0 -2.220446049250313e-16 -1.0 100.0 50.0 250.0
1.5635925127553163 1.5438437079424372 1.1720479726791382 0.0 2.220446049250313e-16 1.0 100.0 50.0 250.0
2.426914986817759 1.595892305427264 1.100495994091034 0.0 -2.220446049250313e-16 -1.0 100.0 50.0 250.0
1.3626190094637094 0.8283289251262655 1.0951240062713625 0.0 -2.220446049250313e-16 -1.0 100.0 50.0 250.0
1.2669330207990823 1.992997902386855 0.7468479871749878 0.7071179747581482 0.7070959806442261 -1.5700684766622476e-16 100.0 50.0 250.0
2.085336026399058 1.0429158983165732 0.8840779960155489 0.7072179913520813 -0.7069960236549377 1.5698465275602874e-16 100.0 50.0 250.0
2.171891030518931 1.8233139095241535 1.1720479726791382 0.0 2.220446049250313e-16 1.0 100.0 50.0 250.0
1.2140580086397348 1.639131906383704 1.0951240062713623 0.0 -2.220446049250313e-16 -1.0 100.0 50.0 250.0
2.0994570223974405 1.8772469041282642 0.9252839982509613 0.7071179747581482 -0.7070950269699097 1.5700663590798795e-16 100.0 50.0 250.0
1.4661390154051004 0.9529329118663779 1.0112019777297976 0.3062739968299866 0.9519370198249817 -0.003563740057870957 100.0 50.0 250.0
1.0150880186247049 1.4323524040514937 1.1720479726791382 0.0 2.220446049250313e-16 1.0 100.0 50.0 250.0
1.9382940201448617 1.9033019123012531 1.1720479726791382 0.0 2.220446049250313e-16 1.0 100.0 50.0 250.0
2.06107401534788 1.8614429113800037 0.7456499934196472 -0.7071040272712708 -0.7071040272712708 0.0028838200960309883 100.0 50.0 250.0
1.2782050041841684 1.9817269024784077 0.7137689888477325 0.7071179747581482 0.7070959806442261 1.8752900359529458e-05 100.0 50.0 250.0
2.3954639999555765 1.739678907149505 1.1685069799423218 0.9602749943733215 0.27905499935150146 1.6724200629024688e-08 100.0 50.0 250.0
1.0841780273603616 1.2070309100086203 1.0951240062713625 0.0 -2.220446049250313e-16 -1.0 100.0 50.0 250.0
2.0640780000375925 1.1655188975269306 0.38193398714065574 -0.7061660289764404 0.7061449885368347 -0.0518608987331392 100.0 50.0 250.0
1.5085420130180536 1.6725289103919976 1.1720479726791382 0.0 2.220446049250313e-16 1.0 100.0 50.0 250.0
2.047817018477839 1.1043289182121265 0.04991799592971824 -0.7009950280189514 0.7009950280189514 -0.13119199872016923 100.0 50.0 250.0
2.0313320128606973 1.1450368938381184 0.6167061869055035 -0.7068899869918823 0.7068910002708435 -0.024721100926399387 100.0 50.0 250.0
2.2469580142187295 1.6136768040592182 0.9954369962215425 -5.9767899074358866e-05 -0.00012202499783620091 -1.0 100.0 50.0 250.0
1.5169780074047265 1.5275501673454752 1.1720479726791382 0.0 2.220446049250313e-16 1.0 100.0 50.0 250.0
1.0727180211233316 2.0207209167415607 1.097288966178894 -0.75307297706604 0.6579369902610779 -8.956330092189923e-08 100.0 50.0 250.0
1.2476640014337717 2.0122679052288044 0.39616598188877106 0.7071189880371094 0.7070950269699097 -1.5700663590798795e-16 100.0 50.0 250.0
1.9169060258554635 0.9470489201480856 1.015163987874985 0.4486129879951477 -0.8937240242958069 -0.001896030036732356 100.0 50.0 250.0
2.121565010993403 1.0791438994342792 0.45318399369716666 0.7071070075035095 -0.7071070075035095 1.5700929612083792e-16 100.0 50.0 250.0
1.2090930013345895 1.882490920775603 0.31419399380683904 -0.7071189880371094 -0.7070940136909485 9.802190563028766e-07 100.0 50.0 250.0
2.1717889873670755 1.1518749175006857 0.9787149727344515 0.8002750277519226 -0.5996339917182922 1.331454927907077e-16 100.0 50.0 250.0
1.2895480065035043 1.897538918011855 0.7885639816522598 0.7071040272712708 -0.7071040272712708 0.002865239977836766 100.0 50.0 250.0
1.546079014091414 2.030989902966689 1.0951240062713623 0.0 -2.220446049250313e-16 -1.0 100.0 50.0 250.0
1.3186960189031778 1.109239893906783 0.6031923871487381 0.7068910002708435 0.7068910002708435 -0.024721100926399387 100.0 50.0 250.0
1.635005213915032 1.7024239031011574 1.1720479726791382 0.0 2.220446049250313e-16 1.0 100.0 50.0 250.0
2.2689590422796426 1.262087899201583 1.1720479726791384 0.0 2.220446049250313e-16 1.0 100.0 50.0 250.0
1.2598940102743326 1.1113068935806263 0.0498430132865908 0.700996994972229 0.700996994972229 -0.13117299973964708 100.0 50.0 250.0
1.4016160039591012 0.9370808777744284 1.1720479726791384 0.0 2.220446049250313e-16 1.0 100.0 50.0 250.0
1.5649410156892953 1.6656529036695469 1.0951240062713623 0.0 -2.220446049250313e-16 -1.0 100.0 50.0 250.0
1.3549200265096841 1.291545900457572 1.1720479726791382 0.0 2.220446049250313e-16 1.0 100.0 50.0 250.0
1.9994180171178995 1.9232708988124836 0.7879639863967896 -0.7071040272712708 -0.7071040272712708 0.0028838200960309883 100.0 50.0 250.0
2.141107019631785 2.1331249055797565 1.11033695936203 0.6228070259094238 0.7823749780654907 -6.505140155960149e-09 100.0 50.0 250.0
1.9941900043176828 0.8462128815586081 1.0951240062713625 0.0 -2.220446049250313e-16 -1.0 100.0 50.0 250.0
2.086033013312739 1.7222589132720936 1.0951240062713623 0.0 -2.220446049250313e-16 -1.0 100.0 50.0 250.0
1.0663810341047464 1.3966529098684302 0.9954349994659425 2.131340079358779e-05 -0.0001082550006687999 -1.0 100.0 50.0 250.0
1.3366300134348092 1.6501039144927967 1.0951240062713623 0.0 -2.220446049250313e-16 -1.0 100.0 50.0 250.0
1.3301330177473245 1.800432908290099 1.0951240062713623 0.0 -2.220446049250313e-16 -1.0 100.0 50.0 250.0
1.6262627138184724 1.9899588999683369 1.0951240062713623 0.0 -2.220446049250313e-16 -1.0 100.0 50.0 250.0
1.211376008241099 1.0609049079353323 0.7585939913988116 -0.7071049809455872 -0.7071080207824707 1.5700952111396453e-16 100.0 50.0 250.0
1.944405016152781 1.0436419126922598 1.0951240062713625 0.0 -2.220446049250313e-16 -1.0 100.0 50.0 250.0
2.014923003165644 1.0775709030563343 0.09147799015045188 -0.7071070075035095 -0.7071070075035095 2.016190260768937e-09 100.0 50.0 250.0
1.9586620001482187 1.4458393109375944 1.0951240062713623 0.0 -2.220446049250313e-16 -1.0 100.0 50.0 250.0
2.297038015572947 1.7364569035703652 1.1720479726791382 0.0 2.220446049250313e-16 1.0 100.0 50.0 250.0
2.01106100961439 2.0419479188854206 0.9346189796924591 0.5268480181694031 0.8498860001564026 0.01117989979684334 100.0 50.0 250.0
1.1013390390562234 1.1771609065467825 1.1720479726791384 0.0 2.220446049250313e-16 1.0 100.0 50.0 250.0
2.403933998792094 1.5260758576328268 1.1720479726791382 0.0 2.220446049250313e-16 1.0 100.0 50.0 250.0
2.395916041581553 1.7753419158393848 1.156358003616333 0.9449639916419983 0.32717400789260864 -7.264722332425336e-17 100.0 50.0 250.0
1.1830429999517618 2.0262258825237263 1.1720479726791382 0.0 2.220446049250313e-16 1.0 100.0 50.0 250.0
2.0982710091756998 1.9818698940212238 0.4364689886569977 0.7069939970970154 0.7072190046310425 -1.5703416447877371e-16 100.0 50.0 250.0
1.9492740003751932 2.0414259014064777 1.016532987356186 -0.44991499185562134 -0.8930709958076477 1.0887300148769929e-08 100.0 50.0 250.0
1.0626170007871805 1.5615075071687212 1.0200019776821136 0.998183012008667 -0.06023630127310753 -0.0014014099724590644 100.0 50.0 250.0
1.5479670135664163 1.0699189183647146 1.1720479726791384 0.0 2.220446049250313e-16 1.0 100.0 50.0 250.0
1.9884940056490121 1.9346319017345417 0.7901149839162827 -0.7071070075035095 0.7071070075035095 -1.885150049945208e-05 100.0 50.0 250.0
0.9902250139402567 1.467050506674718 1.1720479726791382 0.0 2.220446049250313e-16 1.0 100.0 50.0 250.0
1.364366021602076 0.9969619092876425 1.0477309823036196 0.4386979937553406 0.8986219763755798 -0.004829439800232848 100.0 50.0 250.0
1.3283310203241525 2.054721909516524 0.960349977016449 -0.5382530093193054 0.8427839875221252 -1.8713563754649282e-16 100.0 50.0 250.0
1.4328870145963846 1.6694989082748402 1.0951240062713623 0.0 -2.220446049250313e-16 -1.0 100.0 50.0 250.0
1.1928180126833139 2.1025909361774433 1.1720479726791382 0.0 2.220446049250313e-16 1.0 100.0 50.0 250.0
1.0050120322393594 1.8666089055473316 1.1720479726791382 0.0 2.220446049250313e-16 1.0 100.0 50.0 250.0
2.094018009154719 1.871811914199065 0.42572999000549316 0.7071070075035095 -0.7071070075035095 2.207589932383838e-05 100.0 50.0 250.0
1.4553810177730737 1.7877358970577228 1.0951240062713623 0.0 -2.220446049250313e-16 -1.0 100.0 50.0 250.0
2.132263001649302 1.0898419198925007 0.5389536879956724 0.7071070075035095 -0.7071070075035095 1.5700929612083792e-16 100.0 50.0 250.0
1.8498320101188837 2.027597921841811 1.1720479726791382 0.0 2.220446049250313e-16 1.0 100.0 50.0 250.0
1.9598020283865152 1.2951859114105215 1.0951240062713623 0.0 -2.220446049250313e-16 -1.0 100.0 50.0 250.0
2.0442380277799783 1.1588819203311909 0.6707771867513659 -0.7070720195770264 0.7070509791374207 -0.011300100013613859 100.0 50.0 250.0
1.4264670132087884 1.631163905316066 1.1720479726791382 0.0 2.220446049250313e-16 1.0 100.0 50.0 250.0
1.7490286125230012 0.7423809347087851 1.1253499984741215 0.12890100479125977 -0.991657018661499 2.2019209092982695e-16 100.0 50.0 250.0
1.2973350255178628 1.0742179033691395 0.24949499964714072 0.7071070075035095 -0.7071070075035095 1.5700929612083792e-16 100.0 50.0 250.0
2.203711029736918 1.9725738940174091 1.0951240062713623 0.0 -2.220446049250313e-16 -1.0 100.0 50.0 250.0
2.133564022033137 1.9465778944427479 0.6732210889458656 0.7071080207824707 0.7071049809455872 -1.570088461345847e-16 100.0 50.0 250.0
2.093664017169398 1.1587539193565357 0.09668797254562395 -0.7023220062255859 0.7023429870605469 -0.11600600183010117 100.0 50.0 250.0
1.2281140057729898 1.1733429012233723 0.3973199874162676 -0.7070940136909485 0.7071189880371094 -2.333260090397074e-05 100.0 50.0 250.0
2.0103340117620645 1.082159894459914 0.5990196866914632 -0.7071070075035095 -0.7071070075035095 1.8994715958054076e-10 100.0 50.0 250.0
1.4380790112899957 1.5713324089879503 1.0951240062713623 0.0 -2.220446049250313e-16 -1.0 100.0 50.0 250.0
2.0753110019849954 1.440199705713462 1.1720479726791382 0.0 2.220446049250313e-16 1.0 100.0 50.0 250.0
1.8484440116571603 0.8793168840343466 1.1720479726791384 0.0 2.220446049250313e-16 1.0 100.0 50.0 250.0
1.536796015350741 1.3848469135696402 1.0951240062713623 0.0 -2.220446049250313e-16 -1.0 100.0 50.0 250.0
2.215009984223765 1.7991798994476307 0.982496976852417 0.2804799973964691 -0.5533670186996462 -0.7842929959297179 100.0 50.0 250.0
1.8205740122484384 1.0203979191715231 1.1720479726791384 0.0 2.220446049250313e-16 1.0 100.0 50.0 250.0
2.1323900191473184 0.9610939202243796 1.1720479726791384 0.0 2.220446049250313e-16 1.0 100.0 50.0 250.0
1.1760470239805398 1.1212759194309223 0.06571996212005637 -0.7070900201797485 0.7071229815483093 -4.172660152317982e-09 100.0 50.0 250.0
2.11490702316038 1.965235906594466 0.20326298475265503 0.7069960236549377 0.7072179913520813 -1.570339394856471e-16 100.0 50.0 250.0
2.197982010095042 1.0729789016181936 1.1720479726791384 0.0 2.220446049250313e-16 1.0 100.0 50.0 250.0
1.2179530231641946 1.163180905335616 0.884876996278763 -0.7070950269699097 0.7071179747581482 1.6318400695798824e-08 100.0 50.0 250.0
1.1831200091528116 1.549251907446455 1.1720479726791382 0.0 2.220446049250313e-16 1.0 100.0 50.0 250.0
2.127622005193156 2.072931903355788 1.0951240062713623 0.0 -2.220446049250313e-16 -1.0 100.0 50.0 250.0
1.1898220150160013 1.3659269092018118 1.1720479726791382 0.0 2.220446049250313e-16 1.0 100.0 50.0 250.0
1.499692019669932 0.8095538792545309 1.0951240062713625 0.0 -2.220446049250313e-16 -1.0 100.0 50.0 250.0
1.3109030096220193 1.054879921429824 1.0951240062713625 0.0 -2.220446049250313e-16 -1.0 100.0 50.0 250.0
1.4456980197118936 1.581767606490325 1.0951240062713623 0.0 -2.220446049250313e-16 -1.0 100.0 50.0 250.0
2.429484006612223 1.612414608650874 1.1058709621429443 0.0 -2.220446049250313e-16 -1.0 100.0 50.0 250.0
1.0708950130628763 1.8109659132892597 1.1720479726791382 0.0 2.220446049250313e-16 1.0 100.0 50.0 250.0
1.809844013898295 1.6240569082433693 1.1720479726791382 0.0 2.220446049250313e-16 1.0 100.0 50.0 250.0
1.9005580066131769 1.5514866066510191 1.0951240062713623 0.0 -2.220446049250313e-16 -1.0 100.0 50.0 250.0
1.5252000211166559 1.2126639065677633 1.0951240062713625 0.0 -2.220446049250313e-16 -1.0 100.0 50.0 250.0
2.0769660143541513 1.8547569093639362 0.6430312879383564 0.7071179747581482 -0.7070959806442261 -1.8501999875140764e-05 100.0 50.0 250.0
1.7609360112237153 2.2001019296581257 1.1720479726791382 0.0 2.220446049250313e-16 1.0 100.0 50.0 250.0
1.3842020003484903 0.8153419074947348 1.0951240062713625 0.0 -2.220446049250313e-16 -1.0 100.0 50.0 250.0
2.0723850099729715 1.856896894925307 0.488781288266182 -0.7065849900245667 -0.7066059708595276 -0.038024500012397607 100.0 50.0 250.0
1.2401969997572122 1.8513879058296192 0.7637929916381836 -0.7070959806442261 -0.7071179747581482 -3.683549948603046e-05 100.0 50.0 250.0
2.0072080163644967 1.503566407539915 1.0951240062713623 0.0 -2.220446049250313e-16 -1.0 100.0 50.0 250.0
1.984764006583613 2.020712929719161 1.0679799914360046 -0.5268920063972473 -0.8498340249061584 0.012894700281322191 100.0 50.0 250.0
1.548649017362517 1.5483653069818726 1.1720479726791382 0.0 2.220446049250313e-16 1.0 100.0 50.0 250.0
1.2090930013345895 1.882490920775603 0.31419399380683904 -0.7071189880371094 -0.7070940136909485 9.802190563028766e-07 100.0 50.0 250.0
1.2837850122141061 0.9077139077121725 1.0951240062713625 0.0 -2.220446049250313e-16 -1.0 100.0 50.0 250.0
1.5652098102854906 1.8820859072143543 1.1720479726791382 0.0 2.220446049250313e-16 1.0 100.0 50.0 250.0
1.2975120215105234 1.9624189016754139 1.0424380004405975 0.7071070075035095 0.7071070075035095 1.883249933582862e-05 100.0 50.0 250.0
1.3119460014986215 1.0990449068481434 0.3264479935169222 0.7053470015525818 0.7053470015525818 -0.07050280272960678 100.0 50.0 250.0
1.2549350230383096 1.8706379113132465 1.003834992647171 0.7059969902038574 -0.7059969902038574 0.05600130185484902 100.0 50.0 250.0
1.7324142126726327 0.7519688782627096 1.1004610061645512 0.07754670083522797 -0.9969890117645264 1.440890007242435e-08 100.0 50.0 250.0
1.5371740131067453 0.7693479237491598 1.0951240062713625 0.0 -2.220446049250313e-16 -1.0 100.0 50.0 250.0
2.3905529944585977 1.653346913808059 1.1720479726791382 0.0 2.220446049250313e-16 1.0 100.0 50.0 250.0
1.2873070208715616 1.895335900538634 0.7980659902095795 0.7071040272712708 -0.7071040272712708 0.002865239977836766 100.0 50.0 250.0
0.9309620229887187 1.7469679144556038 1.1720479726791382 0.0 2.220446049250313e-16 1.0 100.0 50.0 250.0
1.8298850177215753 1.7772799012596119 1.1720479726791382 0.0 2.220446049250313e-16 1.0 100.0 50.0 250.0
1.087594029157084 1.155747908108901 1.1720479726791384 0.0 2.220446049250313e-16 1.0 100.0 50.0 250.0
2.086584028451365 1.04416390036888 0.15002799034118675 0.7072179913520813 -0.7069960236549377 1.5698465275602874e-16 100.0 50.0 250.0
2.3257960049795328 1.2306628999645224 1.0951240062713625 0.0 -2.220446049250313e-16 -1.0 100.0 50.0 250.0
1.9966350166486917 1.9336868998939503 0.4694259837269783 -0.7065960168838501 -0.7065960168838501 -0.038003798574209054 100.0 50.0 250.0
1.6060442148136316 0.8388889012271872 1.0951240062713625 0.0 -2.220446049250313e-16 -1.0 100.0 50.0 250.0
2.0168570248769937 2.0383778986865986 1.0696269869804382 0.5484880208969116 0.8361579775810242 0.0003560979967003694 100.0 50.0 250.0
2.054466006009501 1.9269309220249164 0.04891997575759888 -0.7009869813919067 -0.7010070085525513 -0.13117299973964675 100.0 50.0 250.0
2.0336430041479288 1.8978268978530872 1.0172659754753113 -0.7059850096702576 -0.7060059905052185 0.05603929981589333 100.0 50.0 250.0
1.3507120279955087 2.067962902539443 0.9149709939956665 -0.49923399090766907 0.866454005241394 -0.004659569822251989 100.0 50.0 250.0
1.1716450123476205 1.1178939220840443 0.9051509797573092 -0.7809370160102844 -0.6246100068092346 1.5748099851855547e-08 100.0 50.0 250.0
2.189859029500407 1.786054897063445 1.0214329957962036 -0.8917329907417297 -0.4525350034236908 -0.004931270144879717 100.0 50.0 250.0
1.9592760173963724 1.2871289131576529 1.0951240062713623 0.0 -2.220446049250313e-16 -1.0 100.0 50.0 250.0
2.0714860229181467 2.182224887364577 1.11565101146698 0.5468930006027222 0.8372030258178711 -1.8589641510976997e-16 100.0 50.0 250.0
1.3611560134576974 0.8199508962566366 1.0951240062713625 0.0 -2.220446049250313e-16 -1.0 100.0 50.0 250.0
1.5275320081400094 0.7951269326145163 1.1720479726791384 0.0 2.220446049250313e-16 1.0 100.0 50.0 250.0
1.9187180070566354 2.0569259104663837 1.0862450003623962 -0.400644987821579 -0.9144909977912903 0.05648469924926778 100.0 50.0 250.0
2.120975014417094 1.8987668929035175 1.053985983133316 0.7071070075035095 -0.7071070075035095 2.701289931088773e-07 100.0 50.0 250.0
2.0930770008253274 1.1528048989707935 0.06711500883102439 -0.7009869813919067 0.7010080218315125 -0.13117299973964708 100.0 50.0 250.0
1.7167031137632547 2.247473913186263 1.0951240062713623 0.0 -2.220446049250313e-16 -1.0 100.0 50.0 250.0
1.994877007453364 2.0728948888713825 1.0951240062713623 0.0 -2.220446049250313e-16 -1.0 100.0 50.0 250.0
1.0786859957861124 1.7449629036123264 0.9954349994659424 1.2495299870352028e-06 0.0002202369942094773 -1.0 100.0 50.0 250.0
2.0655330090212045 1.6073938039476383 1.0951240062713623 0.0 -2.220446049250313e-16 -1.0 100.0 50.0 250.0
2.0409190027403055 1.8829378960067737 0.8507099747657776 -0.7069879770278931 -0.7069879770278931 0.018337100744247593 100.0 50.0 250.0
2.0370770065473733 0.8539669094020834 1.0951240062713625 0.0 -2.220446049250313e-16 -1.0 100.0 50.0 250.0
1.2085120050596414 1.88307290052719 0.5926875062286854 -0.7071179747581482 -0.7070959806442261 -1.8991300748736985e-05 100.0 50.0 250.0
2.3038350312399087 1.643111909681033 1.0951240062713623 0.0 -2.220446049250313e-16 -1.0 100.0 50.0 250.0
2.135055002419871 1.9450878975326527 0.54189108684659 0.7071080207824707 0.7071049809455872 -1.570088461345847e-16 100.0 50.0 250.0
1.2369350163625894 1.8546499190265644 1.0090179741382599 -0.7071279883384705 -0.7070860266685486 -2.0808800399961338e-05 100.0 50.0 250.0
1.2708430258917032 1.4168349084789267 1.0951240062713623 0.0 -2.220446049250313e-16 -1.0 100.0 50.0 250.0
0.8754770128416239 1.5268556270161977 1.1373509764671326 -0.9996659755706787 0.025851700454950333 -4.5181300941703483e-10 100.0 50.0 250.0
2.1925860016035257 1.8192289051944721 1.0951240062713623 0.0 -2.220446049250313e-16 -1.0 100.0 50.0 250.0
1.8434700189518152 1.333008903020095 1.1720479726791382 0.0 2.220446049250313e-16 1.0 100.0 50.0 250.0
1.6339650141435085 1.1531419036323538 1.1720479726791384 0.0 2.220446049250313e-16 1.0 100.0 50.0 250.0
2.1698330013441263 1.746362912409972 1.0951240062713623 0.0 -2.220446049250313e-16 -1.0 100.0 50.0 250.0
2.059392002074641 1.033101904147338 1.0119859874248507 -0.7071070075035095 -0.7071070075035095 -5.48698004651915e-09 100.0 50.0 250.0
2.0560770003484903 1.0693969008857716 2.220446049250313e-16 0.0 -2.220446049250313e-16 -1.0 100.0 50.0 250.0
1.3040010003732858 2.2163819250995624 1.158473014831543 -0.4637640118598938 0.8859590291976929 -7.614230332011258e-09 100.0 50.0 250.0
2.1879270045446573 1.8852459070617664 1.0951240062713623 0.0 -2.220446049250313e-16 -1.0 100.0 50.0 250.0
1.2722500233339487 1.8886019167835224 0.45583999156951904 0.7065860033035278 -0.7066059708595276 -0.03800410032272323 100.0 50.0 250.0
2.1950930325674234 1.304124909394454 1.0951240062713623 0.0 -2.220446049250313e-16 -1.0 100.0 50.0 250.0
1.182280000893992 1.090000915282439 0.07383400201797508 -0.7071080207824707 -0.7071049809455872 1.5960802029157908e-09 100.0 50.0 250.0
1.266793009488505 1.9931379136974323 0.10923799872398376 0.7071070075035095 0.7071070075035095 2.03236995728979e-05 100.0 50.0 250.0
2.013955023734492 1.7741859135562885 1.0951240062713623 0.0 -2.220446049250313e-16 -1.0 100.0 50.0 250.0
1.8290490178751169 2.219668882840346 1.0951240062713623 0.0 -2.220446049250313e-16 -1.0 100.0 50.0 250.0
1.169442024676722 1.9221429107124317 1.0807909965515137 -0.7071070075035095 -0.7071070075035095 1.5700929612083792e-16 100.0 50.0 250.0
1.4058630137132822 1.4568873075181952 1.0951240062713623 0.0 -2.220446049250313e-16 -1.0 100.0 50.0 250.0
1.771452013997954 1.4400581074292174 1.0951240062713623 0.0 -2.220446049250313e-16 -1.0 100.0 50.0 250.0
2.289484020917338 1.9450929043228138 1.0951240062713623 0.0 -2.220446049250313e-16 -1.0 100.0 50.0 250.0
1.3053370086836038 1.9545929012233723 0.7438999861478806 0.7071179747581482 0.7070959806442261 2.4332699253927008e-08 100.0 50.0 250.0
2.215654012410563 1.840127902978133 1.1720479726791382 0.0 2.220446049250313e-16 1.0 100.0 50.0 250.0
2.0035500197099863 1.7425289032394398 1.0951240062713623 0.0 -2.220446049250313e-16 -1.0 100.0 50.0 250.0
1.4328090070175348 0.9138308939868918 1.1720479726791384 0.0 2.220446049250313e-16 1.0 100.0 50.0 250.0
1.1368139950918374 1.815050917618941 0.9655639827251434 0.8807399868965149 -0.47360000014305115 1.0516032492425856e-16 100.0 50.0 250.0
2.1114730207609353 1.1493659195835102 0.5317850857973101 0.7070950269699097 0.7071179747581482 -1.2891400104546141e-08 100.0 50.0 250.0
2.2912420003103433 1.8435759124690998 1.1720479726791382 0.0 2.220446049250313e-16 1.0 100.0 50.0 250.0
2.0770700244592843 1.750152903550338 1.1720479726791382 0.0 2.220446049250313e-16 1.0 100.0 50.0 250.0
2.3825420109914957 1.579899008327197 1.0951240062713623 0.0 -2.220446049250313e-16 -1.0 100.0 50.0 250.0
1.2946130006002603 1.1326339123184193 0.5834988963324579 0.7068910002708435 0.7068910002708435 -0.024721100926399387 100.0 50.0 250.0
2.3742020098852334 1.2997649041349402 1.0951240062713623 0.0 -2.220446049250313e-16 -1.0 100.0 50.0 250.0
1.2974940209078012 2.02368392323799 1.0951240062713623 0.0 -2.220446049250313e-16 -1.0 100.0 50.0 250.0
2.1382360129045663 1.1001679179603565 0.0317879915237429 0.7068009972572327 -0.7068009972572327 -0.02939279936254009 100.0 50.0 250.0
1.1941920189546762 1.0780888972217548 0.24999797344207786 -0.7071070075035095 -0.7071070075035095 -3.719268321973318e-10 100.0 50.0 250.0
1.6583653938850729 2.128930884354781 1.1720479726791382 0.0 2.220446049250313e-16 1.0 100.0 50.0 250.0
1.4250350116180597 1.3683609095746985 1.0951240062713623 0.0 -2.220446049250313e-16 -1.0 100.0 50.0 250.0
2.4153150288747964 1.4727037092084398 1.1720479726791382 0.0 2.220446049250313e-16 1.0 100.0 50.0 250.0
1.5835317118453203 1.291417914384078 1.0951240062713623 0.0 -2.220446049250313e-16 -1.0 100.0 50.0 250.0
2.427911993710917 1.6118044060999863 1.1651859879493713 0.9916560053825378 0.1289149969816208 3.7278198019763404e-09 100.0 50.0 250.0
2.0994570223974405 1.8772469041282642 0.9252839982509613 0.7071179747581482 -0.7070950269699097 1.5700663590798795e-16 100.0 50.0 250.0
1.7502434147881685 0.7539678988391867 1.1004959940910344 0.0 -2.220446049250313e-16 -1.0 100.0 50.0 250.0
1.1838500170396982 1.9356489059860218 1.1720479726791382 0.0 2.220446049250313e-16 1.0 100.0 50.0 250.0
1.4497370092558084 1.6840859082872384 1.1720479726791382 0.0 2.220446049250313e-16 1.0 100.0 50.0 250.0
1.4956010101722894 1.310098904126357 1.0951240062713623 0.0 -2.220446049250313e-16 -1.0 100.0 50.0 250.0
2.090524014680308 1.0481048998767841 0.36423398554325126 0.7069960236549377 -0.7072179913520813 1.570339394856471e-16 100.0 50.0 250.0
1.4755100129532037 2.120073932164382 1.0459759831428528 -0.2923550009727478 0.9563090205192566 0.0013515499886123203 100.0 50.0 250.0
2.195221003739756 1.1887239096099842 0.9217149913311007 0.8498430252075195 -0.5269169807434082 0.011163200251758215 100.0 50.0 250.0
2.0875410108255563 2.171736913674544 1.1578239798545837 0.5468930006027222 0.8372030258178711 -1.8589641510976997e-16 100.0 50.0 250.0
1.1871250240492044 1.085155921929549 0.4551619887351992 -0.7071070075035095 -0.7071070075035095 1.5700929612083792e-16 100.0 50.0 250.0
2.3232790200399576 1.7555889067584984 1.1720479726791382 0.0 2.220446049250313e-16 1.0 100.0 50.0 250.0
2.1417510180162607 1.1012379107410422 1.0403959751129153 -0.37097999453544617 -0.9286410212516785 3.221892039031496e-10 100.0 50.0 250.0
1.7185533127175985 1.003179925435256 1.0951240062713625 0.0 -2.220446049250313e-16 -1.0 100.0 50.0 250.0
1.7049979126440702 1.9452579197818745 1.0951240062713623 0.0 -2.220446049250313e-16 -1.0 100.0 50.0 250.0
2.178957041947764 1.1630339202816 1.010986000299454 0.8498960137367249 -0.5269500017166138 1.1700640494641007e-16 100.0 50.0 250.0
1.2931300072359262 1.0700109181339252 0.6989329829812052 0.7070959806442261 -0.7071179747581482 1.5701173134056128e-16 100.0 50.0 250.0
2.2741979925321756 1.4582497057849875 1.0951240062713623 0.0 -2.220446049250313e-16 -1.0 100.0 50.0 250.0
2.2346050111936746 1.137881892674636 1.0951240062713625 0.0 -2.220446049250313e-16 -1.0 100.0 50.0 250.0
2.1844010321783243 1.7616749135190957 1.1720479726791382 0.0 2.220446049250313e-16 1.0 100.0 50.0 250.0
2.0320350198435007 1.8378718969757069 1.0951240062713623 0.0 -2.220446049250313e-16 -1.0 100.0 50.0 250.0
1.120216008870524 1.4542228085333815 1.1720479726791382 0.0 2.220446049250313e-16 1.0 100.0 50.0 250.0
1.9193749992536722 1.5814206106001845 1.0951240062713623 0.0 -2.220446049250313e-16 -1.0 100.0 50.0 250.0
1.2099470166849313 1.1993309137756338 1.0951240062713625 0.0 -2.220446049250313e-16 -1.0 100.0 50.0 250.0
1.4396680115150629 0.927989917748641 1.0802269876003268 -0.3214380145072937 -0.9469280242919922 -0.0023801000788805766 100.0 50.0 250.0
1.5572860135125337 1.9390019056732166 1.0951240062713623 0.0 -2.220446049250313e-16 -1.0 100.0 50.0 250.0
1.6175417123722253 1.5523596060807219 1.1720479726791382 0.0 2.220446049250313e-16 1.0 100.0 50.0 250.0
1.8797200141834436 1.6486419019634235 1.0951240062713623 0.0 -2.220446049250313e-16 -1.0 100.0 50.0 250.0
1.3737510113405405 2.1820889291698444 1.1720479726791382 0.0 2.220446049250313e-16 1.0 100.0 50.0 250.0
2.2221559850858865 1.2408059117729178 1.0711879730224612 0.9143170118331909 -0.40062201023101807 -0.059379398822784334 100.0 50.0 250.0
1.9749420253919778 1.8164169070655811 1.0951240062713623 0.0 -2.220446049250313e-16 -1.0 100.0 50.0 250.0
2.4032460419820962 1.656623902672004 1.1720479726791382 0.0 2.220446049250313e-16 1.0 100.0 50.0 250.0
1.620375812648457 0.7520598945552817 1.1720479726791386 0.0 2.220446049250313e-16 1.0 100.0 50.0 250.0
1.2056240110086618 0.9314969358379355 1.1720479726791384 0.0 2.220446049250313e-16 1.0 100.0 50.0 250.0
2.117958006112498 1.895749914401244 0.6154179871082306 0.7071070075035095 -0.7071070075035095 -1.9966100808076013e-05 100.0 50.0 250.0
2.114599999635142 1.0721759078437794 0.549464385956526 0.7072179913520813 -0.7069960236549377 1.5698465275602874e-16 100.0 50.0 250.0
1.1084139911817728 0.9619479355747214 1.1435109972953799 -0.6911739706993103 -0.7226889729499817 1.6046918748235532e-16 100.0 50.0 250.0
1.0675500003980813 1.3025149134332648 1.0401780009269717 -0.9412760138511658 -0.3376370072364807 6.162030331332283e-05 100.0 50.0 250.0
2.3096989957975564 1.4204869074160567 1.1720479726791382 0.0 2.220446049250313e-16 1.0 100.0 50.0 250.0
1.894140016882342 1.557564209156703 1.1720479726791382 0.0 2.220446049250313e-16 1.0 100.0 50.0 250.0
1.2308970062421976 1.860686915867995 0.7879459857940674 -0.7070959806442261 -0.7071179747581482 -3.683549948603046e-05 100.0 50.0 250.0
2.1179030208276926 1.142937916272353 0.010969996452331765 0.7071070075035095 0.7071070075035095 1.959369910748807e-05 100.0 50.0 250.0
1.279272016732615 1.9806599197322834 0.5111022889614105 0.7071070075035095 0.7071070075035095 -1.5700929612083792e-16 100.0 50.0 250.0
1.2297660081075845 1.0425138947898853 0.5161118879914286 -0.7072179913520813 -0.7069960236549377 1.5698465275602874e-16 100.0 50.0 250.0
1.2742440073179422 1.8895129141742695 0.4759669899940491 0.7065860033035278 -0.7066059708595276 -0.03800410032272323 100.0 50.0 250.0
1.8698200105117975 0.927669900410842 1.0196349918842318 0.3375129997730255 -0.9413210153579712 9.525370114736672e-05 100.0 50.0 250.0
1.105381008832377 1.1898549077445975 1.1720479726791384 0.0 2.220446049250313e-16 1.0 100.0 50.0 250.0
1.1324680416273294 1.1718249199325552 1.0824439823627474 -0.8427150249481201 -0.538237988948822 -0.01147099956870067 100.0 50.0 250.0
1.9841600029157815 1.4094779071743002 1.0951240062713623 0.0 -2.220446049250313e-16 -1.0 100.0 50.0 250.0
2.2602870433019815 1.0208739218646994 1.107137978076935 0.7823489904403687 -0.6228399872779846 1.3829825890665162e-16 100.0 50.0 250.0
2.313077029435557 1.8051039156848896 1.0951240062713623 0.0 -2.220446049250313e-16 -1.0 100.0 50.0 250.0
1.8132990120338617 0.9389239129955282 0.9954369962215426 0.00012613399303518236 -5.05114985573929e-05 -1.0 100.0 50.0 250.0
2.371926006524485 1.331541913502883 1.0951240062713623 0.0 -2.220446049250313e-16 -1.0 100.0 50.0 250.0
2.3233690230535684 1.8417199132377613 1.0951240062713623 0.0 -2.220446049250313e-16 -1.0 100.0 50.0 250.0
1.652793123981577 0.8033729371959677 1.0951240062713625 0.0 -2.220446049250313e-16 -1.0 100.0 50.0 250.0
1.0655320255445657 1.0078749236995688 1.1160460114479067 -0.7530519962310791 -0.6579599976539612 1.4609646773554834e-16 100.0 50.0 250.0
2.04409300967924 1.9902299222881306 0.44030599296092987 -0.7070950269699097 0.7071189880371094 -2.1868499971035487e-05 100.0 50.0 250.0
1.0862100093053995 1.9754288968975056 1.1720479726791382 0.0 2.220446049250313e-16 1.0 100.0 50.0 250.0
1.2693250147985635 1.1185029027397144 0.14533597230911277 0.7023339867591858 0.702335000038147 -0.11598599702119843 100.0 50.0 250.0
1.217417028396052 1.1626449105674732 0.8601449728012087 -0.7071070075035095 0.7071070075035095 1.875300040394665e-05 100.0 50.0 250.0
2.0972260205434976 0.895763891690444 1.1720479726791384 0.0 2.220446049250313e-16 1.0 100.0 50.0 250.0
1.2783440022157846 1.14698891615219 0.940884977579117 0.7066640257835388 0.7066429853439331 0.035799600183963616 100.0 50.0 250.0
1.8407310067104516 1.2010848996574393 1.0951240062713625 0.0 -2.220446049250313e-16 -1.0 100.0 50.0 250.0
1.243980017154139 1.852034914248656 0.804437980055809 0.7071040272712708 -0.7071040272712708 0.002865239977836766 100.0 50.0 250.0
